ncols   114
nrows   32
xllcorner          -0.41
yllcorner          -0.57
cellsize           0.010
NODATA_value -9999
0.11994189382343728       0.11892602076339601       0.11774977107020287       0.11639752660701881       0.11485415364692141       0.11310548730914033       0.11113887290866188       0.10894375334961005       0.10651228770544469       0.10383998222362029       0.10092631140869239        9.7775303834504085E-002   9.4396065175217647E-002   9.0803209874547985E-002   8.7017173106930537E-002   8.3064376384532249E-002   7.8977223419387343E-002   7.4793907663012110E-002   7.0558019221633780E-002   6.6317946386651963E-002   6.2126075530766822E-002   5.8037802214943271E-002   5.4110375573563463E-002   5.0401606892078614E-002   4.6968481244726093E-002   4.3865717619018862E-002   4.1144327671396495E-002   3.8850225773685597E-002   3.7022943077250937E-002   3.5694495832727310E-002   3.4888453200287592E-002   3.4619242463960226E-002   3.4891720263843337E-002   3.5701027648335187E-002   3.7032734988335897E-002   3.8863270712033569E-002   4.1160616058715287E-002   4.3885237238301525E-002   4.6991217083613514E-002   5.0427540960911829E-002   5.4139486701273776E-002   5.8070065826343664E-002   6.2161463409174826E-002   6.6356426426088536E-002   7.0599555173098016E-002   7.4838458879526920E-002   7.9024744604640179E-002   8.3114817349998774E-002   8.7070478542363855E-002   9.0859319136643371E-002   9.4454912099121477E-002   9.7836816572629243E-002  0.10099041230103170       0.10390658770341882       0.10658130824370500       0.10901509344146700       0.11121243110418029       0.11318115629056802       0.11493182035387593       0.11647707241050977       0.11783107199579690       0.12038747528287568       0.12391702082541101       0.12724124704757822       0.13037312323362171       0.13332510649034535       0.13610892401074653       0.13873541623849803       0.14121443501676162       0.14355478981601161       0.14576423462787536       0.14784948801920494       0.14981627908688233       0.15166941256017866       0.15341284698681251       0.15504978074026460       0.15658274143746073       0.15801367520634310       0.15934403305213951       0.16057485231045510       0.16170683182604836       0.16274040004867643       0.16367577568945643       0.16451302093630799       0.16525208749286147       0.16589285589208266       0.16643516865551508       0.16687885793361981       0.16722376828393223       0.16746977523244794       0.16761680022928613       0.16766482256028659       0.16761388871829233       0.16746411967654076       0.16721571644560812       0.16686896423737016       0.16642423550616667       0.16588199208973520       0.16524278663089964       0.16450726342541386       0.16367615881145769       0.16275030119155429       0.16173061075753950       0.16061809897303908       0.15941386785508815       0.15811910908649560       0.15673510298279775       0.15526321733171894       0.15370490611858173       0.15206170814777134       0.15033524556789701       0.14852722230650431       0.14663942241890854       0.14467370835481522
0.12049998614733876       0.11959623304922494       0.11854980640120429       0.11734681214417937       0.11597378712347352       0.11441813003668605       0.11266858301106134       0.11071575414096044       0.10855266776892065       0.10617532581960434       0.10358326030796833       0.10078005447124398        9.7773808052040320E-002   9.4577521307660006E-002   9.1209372529212865E-002   8.7692865366559541E-002   8.4056825151045927E-002   8.0335227689623243E-002   7.6566849586785488E-002   7.2794735859544615E-002   6.9065488181753287E-002   6.5428385184623211E-002   6.1934354444198154E-002   5.8634823656660749E-002   5.5580485577443432E-002   5.2820017135025127E-002   5.0398797327069887E-002   4.8357670744096477E-002   4.6731803625673737E-002   4.5549677139962698E-002   4.4832258126887667E-002   4.4592381032168331E-002   4.4834366486599123E-002   4.5553892367007298E-002   4.6738122713653657E-002   4.8366089129677825E-002   5.0409308826516994E-002   5.2832613861263707E-002   5.5595157839066912E-002   5.8651559840612849E-002   6.1953140884159145E-002   6.5449206017395858E-002   6.9088325194180775E-002   7.2819568328696085E-002   7.6593654116310195E-002   8.0363978045300224E-002   8.4087492098640748E-002   8.7725416515140889E-002   9.1243772183079538E-002   9.4613730329981868E-002   9.7811783743227201E-002  0.10081975046492297       0.10362462648727598       0.10621830825628717       0.10859720868748783       0.11076179190985043       0.11271605216247221       0.11446696131638287       0.11602390757152897       0.11888082683221723       0.12271061207301645       0.12632827557947462       0.12974517187825060       0.13297276980021347       0.13602234080434408       0.13890470744824679       0.14163004994071260       0.14420776686477565       0.14664638480786124       0.14895351075599286       0.15113582065740283       0.15319907747833861       0.15514817229294461       0.15698718239950535       0.15871944106854163       0.16034761424116967       0.16187378025365609       0.16329950942060645       0.16462594102915218       0.16585385595417884       0.16698374368352240       0.16801586303357399       0.16895029623788149       0.16978699640724268       0.17052582859625948       0.17116660487755750       0.17170911393132174       0.17215314571525484       0.17249851179896813       0.17274506193676764       0.17289269742224175       0.17294138172413112       0.17289114885146836       0.17274210984143423       0.17249445770914912       0.17214847114706103       0.17170451721421498       0.17116305321334982       0.17052462791679737       0.16978988227052813       0.16895954967910520       0.16803445595233540       0.16701551897651110       0.16590374815876932       0.16470024368171185       0.16340619559652286       0.16202288277594079       0.16055167174318632       0.15899401538898572       0.15735145158587416       0.15562560170679041       0.15381816905339690       0.15193093719842846       0.14996576824558286
0.12106801835745598       0.12027836528805111       0.11936405302905108       0.11831294187303813       0.11711326858850066       0.11575402294617713       0.11422536848135106       0.11251909904378965       0.11062911958785716       0.10855193661988370       0.10628714093448899       0.10383786293721670       0.10121117917130858        9.8418447834474634E-002   9.5475551253678514E-002   9.2403024607405099E-002   8.9226052715093596E-002   8.5974320454348829E-002   8.2681707244354183E-002   7.9385821895482128E-002   7.6127380740076786E-002   7.2949439028211924E-002   6.9896492740112254E-002   6.7013474843171758E-002   6.4344676203119663E-002   6.1932626456936375E-002   5.9816973821907343E-002   5.8033404770168336E-002   5.6612644550346133E-002   5.5579577603337683E-002   5.4952523030761875E-002   5.4742694584061655E-002   5.4953867414115225E-002   5.5582265417855381E-002   5.6616673877869228E-002   5.8038772699238558E-002   5.9823676407350833E-002   6.1940658667045782E-002   6.4354031855333976E-002   6.7024146529355663E-002   6.9908471742724701E-002   7.2962715228824443E-002   7.6141942521853023E-002   7.9401656041360041E-002   8.2698798832777684E-002   8.5992652754477081E-002   8.9245607083470083E-002   9.2423780388095733E-002   9.5497485683887065E-002   9.8441535957614665E-002  0.10123539375945401       0.10386317442476874       0.10631351736478639       0.10857934360634808       0.11065752029110552       0.11254845416596695       0.11425563627873657       0.11736052861469051       0.12144937051278902       0.12532835499455791       0.12900584669608001       0.13249101555338344       0.13579346285304478       0.13892289691213056       0.14188886106394771       0.14470051418790972       0.14736646197945194       0.14989463554217691       0.15229221270328738       0.15456557668481563       0.15672030636857046       0.15876119232059438       0.16069227293234459       0.16251688542933834       0.16423772703377079       0.16585692219050110       0.16737609242766416       0.16879642608413445       0.17011874576508329       0.17134357196149616       0.17247118177529905       0.17350166212118989       0.17443495712763957       0.17527090973554341       0.17600929769962445       0.17664986434293745       0.17719234450783694       0.17763648619698263       0.17798206841448166       0.17822891570850255       0.17837690989001020       0.17842599936390843       0.17837620646390018       0.17822763313473947       0.17798046525818609       0.17763497587394433       0.17719152750549294       0.17665057376373863       0.17601266036914320       0.17527842570535626       0.17444860099418003       0.17352401016251248       0.17250556945630030       0.17139428684399766       0.17019126124209993       0.16889768158755766       0.16751482577588148       0.16604405947917447       0.16448683485488186       0.16284468915348180       0.16111924323145671       0.15931219997451945       0.15742534263509408       0.15546053308737195
0.12162569693431625       0.12094805392417940       0.12016343528602468       0.11926142342397428       0.11823192379983469       0.11706548804175694       0.11575367501316701       0.11428944259222960       0.11266756025262528       0.11088502993161026       0.10894150028110966       0.10683965739442362       0.10458557365987418       0.10218899567877832        9.9663552341451203E-002   9.7026865288916353E-002   9.4300546159251097E-002   9.1510068227697500E-002   8.8684504235461675E-002   8.5856127232111737E-002   8.3059876932993298E-002   8.0332700159050932E-002   7.7712780077417443E-002   7.5238674861841701E-002   7.2948391696652765E-002   7.0878426422746221E-002   6.9062802270654422E-002   6.7532142803374579E-002   6.6312814236464943E-002   6.5426170642813669E-002   6.4887932212638444E-002   6.4707721856038847E-002   6.4888779232758528E-002   6.5427864082641451E-002   6.6315352886508583E-002   6.7535524827874588E-002   6.9067025182163747E-002   7.0883487048908761E-002   7.2954286139744431E-002   7.5245398451765963E-002   7.7720327318964874E-002   8.0341064674340254E-002   8.3069051400106550E-002   8.5866103321017836E-002   8.8695272542390083E-002   9.1521618209174579E-002   9.4312866067046724E-002   9.7039942107165711E-002   9.9677371727216607E-002  0.10220354190729798       0.10460082957570942       0.10685560436966297       0.10895811818171947       0.11090229709293535       0.11268545346494392       0.11598586799555599       0.12027179633041790       0.12436047406743658       0.12825620194964793       0.13196472669934226       0.13549285190898280       0.13884807959365550       0.14203828965205656       0.14507146190844497       0.14795544303201588       0.15069775853789416       0.15330546832133407       0.15578506279190499       0.15814239566089167       0.16038264877562880       0.16251032405588431       0.16452925752551803       0.16644265059690844       0.16825311410334282       0.16996272103432983       0.17157306446331519       0.17308531772525107       0.17450029446867218       0.17581850674671343       0.17704021980461435       0.17816550265528919       0.17919427390307049       0.18012634257726187       0.18096144397400404       0.18169927068227215       0.18233949909447811       0.18288181178197843       0.18332591615888735       0.18367155987179135       0.18391854334545060       0.18406672989169012       0.18411605375577611       0.18406652643599397       0.18391824157128231       0.18367137865115002       0.18332620576347897       0.18288308156032815       0.18234245659014325       0.18170487411709060       0.18097097052455260       0.18014147537992667       0.17921721122142739       0.17819909311421017       0.17708812801239496       0.17588541395506749       0.17459213911768887       0.17320958073521753       0.17173910390933764       0.17018216030924602       0.16854028677326213       0.16681510381692344       0.16500831405206995       0.16312170052059916       0.16115712494600232
0.12215597162687780       0.12158482837813406       0.12092352262281755       0.12016327409379574       0.11929557479937049       0.11831246134635785       0.11720681925695470       0.11597271316916181       0.11460573456906284       0.11310335650786774       0.11146528274210103       0.10969377704699899       0.10779395723846111       0.10577403783717476       0.10364550544027999       0.10142321182167686        9.9125371612055146E-002   9.6773454115352459E-002   9.4391962346221908E-002   9.2008096612471946E-002   8.9651304750723207E-002   8.7352726236056458E-002   8.5144542570597448E-002   8.3059251329228437E-002   8.1128885711468479E-002   7.9384205135729746E-002   7.7853885064158079E-002   7.6563735660192256E-002   7.5535978918764998E-002   7.4788612509894659E-002   7.4334885764049952E-002   7.4182909111972312E-002   7.4335413063900596E-002   7.4789666735410473E-002   7.5537559316192437E-002   7.6565841085534589E-002   7.7856513967387270E-002   7.9387355540151291E-002   8.1132555188588709E-002   8.3063436969552928E-002   8.5149240950861987E-002   8.7357933383459763E-002   8.9657016104789072E-002   9.2014306985220187E-002   9.4398665881369345E-002   9.6780644247297223E-002   9.9133041025419755E-002  0.10143135241219679       0.10365410827782469       0.10578309313167732       0.10780345430951124       0.10970370429782117       0.11147562763859675       0.11492656235576783       0.11933166403353421       0.12356215713226695       0.12761774206792070       0.13150004230192630       0.13521225237945991       0.13875879290898860       0.14214498302742007       0.14537673869983589       0.14846030296136692       0.15140201203886638       0.15420809928752360       0.15688453711417005       0.15943691558189566       0.16187035522345689       0.16418945073672311       0.16639824167956530       0.16850020599621704       0.17049827215498337       0.17239484581562839       0.17419184722940437       0.17589075596219045       0.17749265998172564       0.17899830662862559       0.18040815346893233       0.18172241748089707       0.18294112144430663       0.18406413676649139       0.18509122228976438       0.18602205887918855       0.18685627978921732       0.18759349695721156       0.18823332347690971       0.18877539257222206       0.18921937342805831       0.18956498424687784       0.18981200289333530       0.18996027547012517       0.19000972314040818       0.18996034747970458       0.18981223460571511       0.18956555830030652       0.18922058230536187       0.18877766194430376       0.18823724519438839       0.18759987331155331       0.18686618108965822       0.18603689681920882       0.18511284199681233       0.18409493082535300       0.18298416953584096       0.18178165555473980       0.18048857653499306       0.17910620926466475       0.17763591846382995       0.17607915547788730       0.17443745687363627       0.17271244294312704       0.17090581611932801       0.16901935930697701       0.16705493413151376
0.12264569581874571       0.12217290447177134       0.12162547713352420       0.12099614556169312       0.12027786689716263       0.11946404908946243       0.11854880280627349       0.11752721476902676       0.11639563560117197       0.11515197345837842       0.11379598304233073       0.11232953820221626       0.11075687532247339       0.10908479419726781       0.10732280320122344       0.10548319635707848       0.10358105141576779       0.10163414030411241        9.9662746215624612E-002   9.7689385129238374E-002   9.5738433501139378E-002   9.3835668106950099E-002   9.2007728302912817E-002   9.0281515091496414E-002   8.8683545077763881E-002   8.7239280455022078E-002   8.5972458353564984E-002   8.4904444056750752E-002   8.4053632619932761E-002   8.3434922269546768E-002   8.3059280631617258E-002   8.2933421432025964E-002   8.3059604983433538E-002   8.3435570742679335E-002   8.4054604750081127E-002   8.4905739139268077E-002   8.5974075433776262E-002   8.7241218315568886E-002   8.8685802223188975E-002   9.0284089730330405E-002   9.2010618327569349E-002   9.3838871071777616E-002   9.5741946599013902E-002   9.7693205167113398E-002   9.9666869589480178E-002  0.10163856297376546       0.10358576888001982       0.10548820362968379       0.10732809478816167       0.10909036407579838       0.11076271692243593       0.11433734511942803       0.11877613954215013       0.12307104189881027       0.12721727764282120       0.13121222722647055       0.13505515633050971       0.13874692964346738       0.14228971998378365       0.14568672316033196       0.14894188729934024       0.15205966354844969       0.15504478321324136       0.15790206458535125       0.16063625106365123       0.16325188071027041       0.16575318616048801       0.16814402283940014       0.17042782273114571       0.17260757048636960       0.17468579841738027       0.17666459688729749       0.17854563671410739       0.18033020044616621       0.18201921968647730       0.18361331601600875       0.18511284346259446       0.18651793085770654       0.18782852279999906       0.18904441828857407       0.19016530639175913       0.19119079857432045       0.19212045751642706       0.19295382242296369       0.19369043094552157       0.19432983792639111       0.19487163122959977       0.19531544495413528       0.19566097033442559       0.19590796462793619       0.19605625827380951       0.19610576058354229       0.19605646419781170       0.19590844851508282       0.19566188226931752       0.19531702540718818       0.19487423039047438       0.19433394302722704       0.19369670291600269       0.19296314357098046       0.19213399228192504       0.19121006975152147       0.19019228954330172       0.18908165736592353       0.18787927021365994       0.18658631537835374       0.18520406934454275       0.18373389657676395       0.18217724820602152       0.18053566062090490       0.17881075396775326       0.17700423056348158       0.17511787322413458       0.17315354351186318
0.12308587127199007       0.12270147865536121       0.12225640510457614       0.12174474136277066       0.12116076141242420       0.12049910575072677       0.11975498619702310       0.11892440812011131       0.11800440446464884       0.11699327447840584       0.11589081868631411       0.11469856052101193       0.11341994420207049       0.11206049805112112       0.11062795251876922       0.10913230284239700       0.10758580748554264       0.10600291533044802       0.10440011696964957       0.10279571829561805       0.10120953780730625        9.9662532493228886E-002   9.8176360639680604E-002   9.6772893259723214E-002   9.5473688847485860E-002   9.4299448643808348E-002   9.3269471384070060E-002   9.2401127450629464E-002   9.1709372377728984E-002   9.1206318715066514E-002   9.0900883363492502E-002   9.0798524726398808E-002   9.0901080502061249E-002   9.1206712851842925E-002   9.1709963229993266E-002   9.2401914589340994E-002   9.3270454228006602E-002   9.4300626451904485E-002   9.5475060709499057E-002   9.6774458085385345E-002   9.8178117146519917E-002   9.9664479193272315E-002  0.10121167299289434       0.10279804002458380       0.10440262305012890       0.10600560330560155       0.10758867461847731       0.10913534610158088       0.11063116856423306       0.11433287298620916       0.11872260627940638       0.12300397234814189       0.12716847932773032       0.13120974954593845       0.13512335910480328       0.13890664286597879       0.14255847564953875       0.14607904005122843       0.14946959046567979       0.15273222176689458       0.15586964974155149       0.15888500889322429       0.16178167172712293       0.16456309216462572       0.16723267438918332       0.16979366723841827       0.17224908326313973       0.17460164078852200       0.17685372673780578       0.17900737760481616       0.18106427576955200       0.18302575831601936       0.18489283560468545       0.18666621704350866       0.18834634176231504       0.18993341219851537       0.19142742892435069       0.19282822536761426       0.19413550138400731       0.19534885491901965       0.19646781124345392       0.19749184945578352       0.19842042611560254       0.19925299600681831       0.19998903012985031       0.20062803109284308       0.20116954611722052       0.20161317789739164       0.20195859356251331       0.20220553198399349       0.20235380965948213       0.20240332538547148       0.20235406390878910       0.20220609872413065       0.20195959416177983       0.20161480688779782       0.20117208691887983       0.20063187823613421       0.19999471906637983       0.19926124188617028       0.19843217319251225       0.19750833307496385       0.19649063461625332       0.19538008314250874       0.19417777533941180       0.19288489824686206       0.19150272814186925       0.19003262931721807       0.18847605276181903       0.18683453474745876       0.18510969532579311       0.18330323673880669       0.18141694174553252       0.17945267186753783
0.12347151771918659       0.12316457165767691       0.12280917064759597       0.12240059603211728       0.12193427547305075       0.12140592929922334       0.12081173404858370       0.12014849992035498       0.11941385764897876       0.11860644913177527       0.11772611505962308       0.11677407189264880       0.11575306987011892       0.11466752342035307       0.11352360540728010       0.11232929716387614       0.11109438724616541       0.10983041329548547       0.10855054329262186       0.10726939476568824       0.10600279308473297       0.10476747272355977       0.10358072815525819       0.10246002372059326       0.10142257421106948       0.10048490988999012        9.9662441100035790E-002   9.8969038365738282E-002   9.8416643919533087E-002   9.8014929828147412E-002   9.7771016384695028E-002   9.7689262220045009E-002   9.7771134777608376E-002   9.8015166529471551E-002   9.8416998759069729E-002   9.8969511085226849E-002   9.9663031349652334E-002  0.10048561722376975       0.10142339808132854       0.10246096347144498       0.10358178301533157       0.10476864179804679       0.10600407534690222       0.10727078904801500       0.10855204827769425       0.10983202750685403       0.11109610903930861       0.11496925697049558       0.11923986177680844       0.12343854604728342       0.12755431366396672       0.13157800119278118       0.13550223080234589       0.13932131894300440       0.14303114883292220       0.14662901531176042       0.15011345069326401       0.15348403992476323       0.15674123270882681       0.15988615933502992       0.16292045588722198       0.16584610331190641       0.16866528362881134       0.17138025539863272       0.17399324948679129       0.17650638521441156       0.17892160619393332       0.18124063451956723       0.18346494152375917       0.18559573301214391       0.18763394673613401       0.18958025983429133       0.19143510404806535       0.19319868667047610       0.19487101539459883       0.19645192547085163       0.19794110783937754       0.19933813716076196       0.20064249891285107       0.20185361494482881       0.20297086707633971       0.20399361849641198       0.20492123285354946       0.20575309103569539       0.20648860571912911       0.20712723382186435       0.20766848703332416       0.20811194061163812       0.20845724064638654       0.20870410998126782       0.20885235298085106       0.20890185931072466       0.20885260688293139       0.20870466410012536       0.20845819151354106       0.20811344299242263       0.20767076648654578       0.20713060444915479       0.20649349397515371       0.20576006669871960       0.20493104848554958       0.20400725894756025       0.20298961080185338       0.20187910909094930       0.20067685027749332       0.19938402122368326       0.19800189806339499       0.19653184497326365       0.19497531284769601       0.19333383788184741       0.19160904006591983       0.18980262159365924       0.18791636518760441       0.18595213234342567
0.12380124362613926       0.12356051322857022       0.12328178085699854       0.12296134579206558       0.12259562206740041       0.12218125324650204       0.12171524068417609       0.12119508269723259       0.12061892112443384       0.11998569083038249       0.11929526685897142       0.11854860323043688       0.11774785686408523       0.11689648985515169       0.11599934338977698       0.11506267698490399       0.11409416751118136       0.11310286359730812       0.11209909250115624       0.11109431831979119       0.11010095242695433       0.10913211918136274       0.10820138213416808       0.10732243806000233       0.10650878802038066       0.10577339622226993       0.10512834855237679       0.10458452326364093       0.10415128630634357       0.10383622320652836       0.10364491820909372       0.10358078966826173       0.10364498846477693       0.10383636366759003       0.10415149687147128       0.10458480377912011       0.10512869881002751       0.10577381595674869       0.10650927690589192       0.10732299570647412       0.10820200808295653       0.10913281290055822       0.11010171330637068       0.11109514566572612       0.11211081726420472       0.11623714532432475       0.12033863634742384       0.12440189365445106       0.12841481442626221       0.13236668584688399       0.13624823369564668       0.14005162629988788       0.14377043824685198       0.14739957939377860       0.15093519548648454       0.15437454709958662       0.15771587366707263       0.16095824911834899       0.16410143512295963       0.16714573723563028       0.17009186838426674       0.17294082321828236       0.17569376588995964       0.17835193292702534       0.18091655201064352       0.18338877672983964       0.18576963676083139       0.18806000242785706       0.19026056224209048       0.19237181178099444       0.19439405215022357       0.19632739624824289       0.19817178111222264       0.19992698474377291       0.20159264597644630       0.20316828613685772       0.20465333145307493       0.20604713536546496       0.20734900008697654       0.20855819693505256       0.20967398511159818       0.21069562873839356       0.21162241206250446       0.21245365283043793       0.21318871389283614       0.21382701314583452       0.21436803194362830       0.21481132213215706       0.21515651185892173       0.21540331031133883       0.21555151152797053       0.21560099741534117       0.21555174008940875       0.21540380364630762       0.21515734545261070       0.21481261703170226       0.21436996461031066       0.21382982937804965       0.21319274750304673       0.21245934993838839       0.21163036204710850       0.21070660306766920       0.20968898543719267       0.20857851398595095       0.20737628501366051       0.20608348525583128       0.20470139074665691       0.20323136558360419       0.20167486059787326       0.20003341193417942       0.19830863954279576       0.19650224558643836       0.19461601276433765       0.19265180255568948
0.12407661439665596       0.12389118359509192       0.12367648051901181       0.12342965456848110       0.12314794353528731       0.12282876201339185       0.12246980019628040       0.12206913107751310       0.12162532334307709       0.12113755653140457       0.12060573438289772       0.12003059175268553       0.11941379006597574       0.11875799610001267       0.11806693891942353       0.11734544010201729       0.11659941298620616       0.11583582754960731       0.11506263867371527       0.11428867692586032       0.11352350254289650       0.11277722496085729       0.11206029191787049       0.11138325377219890       0.11075651012874571       0.11019004706441049       0.10969317410365884       0.10927427055470339       0.10894055082896095       0.10869785791220477       0.10855049324278850       0.10850108991614692       0.10855053443757906       0.10869794027216854       0.10894067429445493       0.10927443503524865       0.10969337947674172       0.11019029317391422       0.11075679678303826       0.11138358074190854       0.11206065893338597       0.11277763170959489       0.11416502470837893       0.11806821423766739       0.12197399400553730       0.12586971303144964       0.12974345916676611       0.13358420815224933       0.13738193586530745       0.14112769306954939       0.14481364353246007       0.14843306775334600       0.15198033568905431       0.15545085274337911       0.15884098388020035       0.16214796103071016       0.16536977900788585       0.16850508494604957       0.17155306588903091       0.17451333860237206       0.17738584503103599       0.18017075611138525       0.18286838591854654       0.18547911742584841       0.18800334050293177       0.19044140220668107       0.19279356893960772       0.19505999967144189       0.19724072914239993       0.19933565978618259       0.20134456101815251       0.20326707451725445       0.20510272417523540       0.20685092947917597       0.20851102121919737       0.21008225855951751       0.21156384666649541       0.21295495424255553       0.21425473046263871       0.21546232094480944       0.21657688250546994       0.21759759655052954       0.21852368103644357       0.21935440099991152       0.22008907770360372       0.22072709647945957       0.22126791337300747       0.22171106070401603       0.22205615166273776       0.22230288405901866       0.22245104333535531       0.22250050494604559       0.22245123619409296       0.22230329760641390       0.22205684391685229       0.22171212471600696       0.22126948481723935       0.22072936437962348       0.22009229882109504       0.21935891854864897       0.21852994852706062       0.21760620770317834       0.21658860829924290       0.21547815498582013       0.21427594394267638       0.21298316181417520       0.21160108456443733       0.21013107623650409       0.20857458761900260       0.20693315482327757       0.20520839777357872       0.20340201861263738       0.20151580002480093       0.19955160347879655
0.12430141830629472       0.12416113207082877       0.12399870014696827       0.12381196593848388       0.12359883972083335       0.12335736552720168       0.12308579589264643       0.12278267295560133       0.12244691386545782       0.12207789790572858       0.12167555224750330       0.12124043283323538       0.12077379659254725       0.12027766104395073       0.11975484736873669       0.11920900327802932       0.11864460244346429       0.11806691792648637       0.11748196790775081       0.11689643305935858       0.11631754607773390       0.11575295515065349       0.11521056440523425       0.11469835560517595       0.11422419646365276       0.11379564184386090       0.11341973477059343       0.11310281452349072       0.11285033909189647       0.11266672892759319       0.11255523824093856       0.11251785907505668       0.11255526210873937       0.11266677664594515       0.11285041062606654       0.11310290982079858       0.11341985375972495       0.11379578443396965       0.11422436254326407       0.11469854504091145       0.11666970099837917       0.12035319080358062       0.12405888058223520       0.12777576631588614       0.13149310298280337       0.13520056716615286       0.13888839663712285       0.14254750386319201       0.14616956166502859       0.14974706050122283       0.15327333803514737       0.15674258267950347       0.16014981368061965       0.16349084096912864       0.16676220845313910       0.16996112466478758       0.17308538470344664       0.17613328727110758       0.17910355029714364       0.18199522823502662       0.18480763361882108       0.18754026492810824       0.19019274225950758       0.19276475177004743       0.19525599936583188       0.19766617367638259       0.19999491799227403       0.20224181055706206       0.20440635239473992       0.20648796171748310       0.20848597388839959       0.21039964590124477       0.21222816437311726       0.21397065611611440       0.21562620044915698       0.21719384252190102       0.21867260704028796       0.22006151190075984       0.22135958135196743       0.22256585840494056       0.22367941630260177       0.22469936893585921       0.22562488015600060       0.22645517198221107       0.22718953173981268       0.22782731819069926       0.22836796673403514       0.22881099376428138       0.22915600027662530       0.22940267480840756       0.22955079580047980       0.22960023345568858       0.22955095116377147       0.22940300655356852       0.22915655222511877       0.22881183620629361       0.22836920217134837       0.22782908945228758       0.22719203286828438       0.22645866239356924       0.22562970268016136       0.22470597244848858       0.22368838375624686       0.22257794115370258       0.22137574073195523       0.22008296906937563       0.21870090208044574       0.21723090377048937       0.21567442489924371       0.21403300155583771       0.21230825364748160       0.21050188330399694       0.20861567320021263       0.20665148479819884
0.12448092102518722       0.12437668193526341       0.12425598759924475       0.12411723556918872       0.12395887308566049       0.12377944677700760       0.12357765819755380       0.12335242408959129       0.12310293984497951       0.12282874424149845       0.12252978316145012       0.12220646969188322       0.12185973778412752       0.12149108654050966       0.12110261222016479       0.12069702523028171       0.12027764970309075       0.11984840375268280       0.11941375914958786       0.11897867992473250       0.11854854028753027       0.11812902317590102       0.11772600170212996       0.11734540666609894       0.11699308412335628       0.11667464766840249       0.11639533057756105       0.11615984321384591       0.11597224110313371       0.11583580883559703       0.11575296443309604       0.11572518807210630       0.11575297809769292       0.11583583615484982       0.11597228205702877       0.11615989777203536       0.11639539869897556       0.11667472930074441       0.11948234746929252       0.12296646289429644       0.12648504738930552       0.13002915808069629       0.13358976429037120       0.13715789302683357       0.14072476453111882       0.14428191388709755       0.14782129552160236       0.15133536832745853       0.15481716008862109       0.15826031081967545       0.16165909550510699       0.16500842749745384       0.16830384447731805       0.17154147937201145       0.17471801896361172       0.17783065309165533       0.18087701737976944       0.18385513230576431       0.18676334121305682       0.18960024955321747       0.19236466728182194       0.19505555592917359       0.19767198145844025       0.20021307362778179       0.20267799220762681       0.20506590008248093       0.20737594299711931       0.20960723549405874       0.21175885243335787       0.21382982538440365       0.21581914312731448       0.21772575549212764       0.21954857978926318       0.22128650913676098       0.22293842206056602       0.22450319282641962       0.22597970204933956       0.22736684721398301       0.22866355282227968       0.22986877996064006       0.23098153514587280       0.23200087836570357       0.23292593027623845       0.23375587855522229       0.23448998343729191       0.23512758247667137       0.23566809459511373       0.23611102347959884       0.23645596039655967       0.23670258648833276       0.23685067461408815       0.23690009079251376       0.23685079529767411       0.23670284345326104       0.23645638616428472       0.23611167021939494       0.23566903839164524       0.23512892936071630       0.23449187747543915       0.23375851237189560       0.23292955845939631       0.23200583428418625       0.23098825177875054       0.22987781540302096       0.22867562118255319       0.22738285564780208       0.22600079467790973       0.22453080225189490       0.22297432910975637       0.22133291132573846       0.21960816879583300       0.21780180364148646       0.21591559853142162       0.21395141492346570
0.12462118082060689       0.12454510815876844       0.12445702662765737       0.12435576677747553       0.12424019542049035       0.12410925190101427       0.12396198862656320       0.12379761504639096       0.12361554396506190       0.12341543878632591       0.12319726001425024       0.12296130911370098       0.12270826767048140       0.12243922971129226       0.12215572506122584       0.12185973174379726       0.12155367567224533       0.12124041624118997       0.12092321689760041       0.12060570033465898       0.12029178858931022       0.11998562900520773       0.11969150771323553       0.11941375294415328       0.11915663108337363       0.11892423886896307       0.11872039548716978       0.11854853850809803       0.11841162760918179       0.11831205984775769       0.11825159986946604       0.11823132789105054       0.11825160759985928       0.11831207530287366       0.11841165077760636       0.11921043711949016       0.12247698685533864       0.12579096115867591       0.12914585313631183       0.13253476207192136       0.13595050053141075       0.13938570531748304       0.14283294832777341       0.14628484355923629       0.14973414685467443       0.15317384547838281       0.15659723520334315       0.15999798325478157       0.16337017614537716       0.16670835211834109       0.17000751855180815       0.17326315524262820       0.17647120495753538       0.17962805300004836       0.18273049778521211       0.18577571454161171       0.18876121427766707       0.19168480006911068       0.19454452256280266       0.19733863636721508       0.20006555873165172       0.20272383162391683       0.20531208801765982       0.20782902291166355       0.21027336933668012       0.21264387937060622       0.21493930998610319       0.21715841339937225       0.21929993147507509       0.22136259366841443       0.22334511794743847       0.22524621413174525       0.22706458910226471       0.22879895337476619       0.23044802858141597       0.23201055546477545       0.23348530205245602       0.23487107174438654       0.23616671110531101       0.23737111721056153       0.23848324444194441       0.23950211067202334       0.24042680280900433       0.24125648170109631       0.24199038641920168       0.24262783795086448       0.24316824234744491       0.24361109337140835       0.24395597469229208       0.24420256167915380       0.24435062283481948       0.24440002091363894       0.24435071376021159       0.24420275490204146       0.24395629392460702       0.24361157665307839       0.24316894516101881       0.24262883762293050       0.24199178802448423       0.24125842574169659       0.24042947499817185       0.23950575420776188       0.23848817520858062       0.23737774239318571       0.23617555173886756       0.23488278974132229       0.23350073225448881       0.23203074323897091       0.23047427342121310       0.22883285886543064       0.22710811946018961       0.22530175732147725       0.22341555511408359       0.22145137429312248
0.12472847309438764       0.12467394640497174       0.12461081210850597       0.12453823197762219       0.12445539377649044       0.12436153725806012       0.12425598321558765       0.12413816500514076       0.12400766174178926       0.12386423216260883       0.12370784795730944       0.12353872520612445       0.12335735244863462       0.12316451384975650       0.12296130594170293       0.12274914651196096       0.12252977438203130       0.12230523907996387       0.12207787974651145       0.12185029301943369       0.12162529009721292       0.12140584367150870       0.12119502591258226       0.12099593916669042       0.12081164145125635       0.12064506918561821       0.12049895984832791       0.12037577738695285       0.12027764320993961       0.12020627545652782       0.12016293897222015       0.12014840802441114       0.12016294329371338       0.12243729433183920       0.12556333109963380       0.12873766238762183       0.13195553422204667       0.13521177111014723       0.13850083978421876       0.14181692123876249       0.14515398836174759       0.14850588632742415       0.15186641292172690       0.15522939610628006       0.15858876638018435       0.16193862185076030       0.16527328435123215       0.16858734541811149       0.17187570143595249       0.17513357774522817       0.17835654196582099       0.18154050719334849       0.18468172606235375       0.18777677692870334       0.19082254359826120       0.19381619012017329       0.19675513217570895       0.19963700653619387       0.20245963994764599       0.20522101863859082       0.20791925945526002       0.21055258341883962       0.21311929228550253       0.21561774848285678       0.21804635860531926       0.22040356048263376       0.22268781369479099       0.22489759329524087       0.22703138642279566       0.22908769142961624       0.23106501912549160       0.23296189573370388       0.23477686716705212       0.23650850425984674       0.23815540862874460       0.23971621887837363       0.24118961691346402       0.24257433416491242       0.24386915758071115       0.24507293527242402       0.24618458174288999       0.24720308265056548       0.24812749909025597       0.24895697138912612       0.24969072243122661       0.25032806053388673       0.25086838190582939       0.25131117272041648       0.25165601083865918       0.25190256721611182       0.25205060702600929       0.25209999052845017       0.25205067371241069       0.25190270873417198       0.25165624417256538       0.25131152511841837       0.25086889311281785       0.25032878594634250       0.24969173732927791       0.24895837644100838       0.24812942736526708       0.24720570841668893       0.24618813136312043       0.24507770054736228       0.24387551191141990       0.24258275192588785       0.24120069642676295       0.23973070936174862       0.23817424144795749       0.23653282874282147       0.23480809112996925       0.23300173072181379       0.23111553018060174       0.22915135095970529
0.12480884914243993       0.12477046319977696       0.12472601763756061       0.12467492235701372       0.12461660555696379       0.12455053203547906       0.12447622364167271       0.12439328146703482       0.12430140921501233       0.12420043704001515       0.12409034501163860       0.12397128524642850       0.12384360166787935       0.12370784631491615       0.12356479112796519       0.12341543420594896       0.12326099965052532       0.12310293029572365       0.12294287285822307       0.12278265532842801       0.12262425674402547       0.12246976983129917       0.12232135734788008       0.12218120329484175       0.12205146046651545       0.12193419605419688       0.12183133719814547       0.12174461847730106       0.12167553332868151       0.12162529129439298       0.12272098937109097       0.12568285220342026       0.12869567341723376       0.13175630630267327       0.13486121542137494       0.13800649575530619       0.14118790192936459       0.14440088642380988       0.14764064534124388       0.15090217001624093       0.15418030256670726       0.15746979339200487       0.16076535862540534       0.16406173564345725       0.16735373491307559       0.17063628670496067       0.17390448150242074       0.17715360326891041       0.18037915508600705       0.18357687701715295       0.18674275637403243       0.18987303084738275       0.19296418520114933       0.19601294241075337       0.19901625024924968       0.20197126438941287       0.20487532909867665       0.20772595656344506       0.21052080579769847       0.21325766197739002       0.21593441690678752       0.21854905117541612       0.22109961841366724       0.22358423190935783       0.22600105371299253       0.22834828624102349       0.23062416628718657       0.23282696127360844       0.23495496751602921       0.23700651024019012       0.23897994506731707       0.24087366068319216       0.24268608241467443       0.24441567645672771       0.24606095451912618       0.24762047869235457       0.24909286636446645       0.25047679505286408       0.25177100704561539       0.25297431377493262       0.25408559987009788       0.25510382685808042       0.25602803649724570       0.25685735374306051       0.25759098935482194       0.25822824215958656       0.25876850099408072       0.25921124634790310       0.25955605173222013       0.25980258479781865       0.25995060822517158       0.25999998040739847       0.25995065594490674       0.25980268596827294       0.25955621830371534       0.25921149749340794       0.25876886468096816       0.25822875737074336       0.25759170906804318       0.25685834880621172       0.25602940056539825       0.25510568258703842       0.25408810658739267       0.25297767687296319       0.25177548936021865       0.25048273050176434       0.24910067612088857       0.24763069015628100       0.24607422331863135       0.24443281166077671       0.24270807506305422       0.24090171563552898       0.23901551603879714       0.23705133772510911
0.12486783326610175       0.12484129222913538       0.12481056141508906       0.12477523281449907       0.12473491106932212       0.12468922612715191       0.12463784738211657       0.12458049901853002       0.12451697616921412       0.12444716139839387       0.12437104092545802       0.12428871992742484       0.12420043620150803       0.12410657144121684       0.12400765938554617       0.12390439014522338       0.12379761009501297       0.12368831684680393       0.12357764898213661       0.12346687041981980       0.12335734951660218       0.12325053323642973       0.12314791696471616       0.12305101077514824       0.12296130316429739       0.12288022344064259       0.12280910407784146       0.12327121350938537       0.12608658633245454       0.12895418146246315       0.13187175031256237       0.13483676965319810       0.13784643327464663       0.14089765109584490       0.14398705587447549       0.14711101735760423       0.15026566340494807       0.15344690733441158       0.15665048049658764       0.15987196889365352       0.16310685252739607       0.16635054609606997       0.16959843966154034       0.17284593797385714       0.17608849726363726       0.17932165848396420       0.18254107619126708       0.18574254248574246       0.18892200567278572       0.19207558354447921       0.19519957140251101       0.19829044514091224       0.20134485987095030       0.20435964469626589       0.20733179433140006       0.21025845830129919       0.21313692846553875       0.21596462558308158       0.21873908557697819       0.22145794608000541       0.22411893374867214       0.22671985273105250       0.22925857456979817       0.23173302972090146       0.23414120077577816       0.23648111739235184       0.23875085287223835       0.24094852226695196       0.24307228185641955       0.24512032981732365       0.24709090788559598       0.24898230381502684       0.25079285444045629       0.25252094916730822       0.25416503372730576       0.25572361406121502       0.25719526021178046       0.25857861013230726       0.25987237333756341       0.26107533434306579       0.26218635585589228       0.26320438169467969       0.26412843942835701       0.26495764273252592       0.26569119346942960       0.26632838350241961       0.26686859625904524       0.26731130805866282       0.26765608922111195       0.26790260497279639       0.26805061616570486       0.26809997982370615       0.26805064952903607       0.26790267566037979       0.26765620549246005       0.26731148316561393       0.26686884953254675       0.26632874188830064       0.26569169358847960       0.26495833355994003       0.26412938570746425       0.26320566821938107       0.26218809277466443       0.26107766365370733       0.25987547675472344       0.25858271851755771       0.25720066475656916       0.25573067940418454       0.25417421316668759       0.25253280209380685       0.25080806606368466       0.24900170718484149       0.24711550811680028       0.24515133031108721
0.12491024665685316       0.12489222286408061       0.12487135382987741       0.12484736247855836       0.12481998032590089       0.12478895607251084       0.12475406520678037       0.12471512042462521       0.12467198260245761       0.12462457199057422       0.12457287923056784       0.12451697574709622       0.12445702302600954       0.12439328027185020       0.12432610994189601       0.12425598068407669       0.12418346726383971       0.12410924715041964       0.12403409354428956       0.12395886476134989       0.12388449004038166       0.12381195200162022       0.12374226614789630       0.12367645795672491       0.12411139464001228       0.12678510831295009       0.12951312925060735       0.13229353201819183       0.13512423373943025       0.13800297676987289       0.14092731494983401       0.14389460410675259       0.14690199731175435       0.14994644520337419       0.15302470148275443       0.15613333347026134       0.15926873740482303       0.16242715797548329       0.16560471140967731       0.16879741131284604       0.17200119636524283       0.17521195893762326       0.17842557368869191       0.18163792525179165       0.18484493420200346       0.18804258061117590       0.19122692463948790       0.19439412376908743       0.19754044644894941       0.20066228208143616       0.20375614743203097       0.20681868967750902       0.20984668641915616       0.21283704307304624       0.21578678810716198       0.21869306662533056       0.22155313280213665       0.22436434165402072       0.22712414059347832       0.22983006116003854       0.23247971125817488       0.23507076816306899       0.23760097248446468       0.24006812321042706       0.24247007388968128       0.24480472995561461       0.24707004714846975       0.24926403095548566       0.25138473696184677       0.25343027198782409       0.25539879587855113       0.25728852381129858       0.25909772898955002       0.26082474560223068       0.26246797193874599       0.26402587356477225       0.26549698647892656       0.26687992018560469       0.26817336063371144       0.26937607298420119       0.27048690418097443       0.27150478530955963       0.27242873373611232       0.27325785502565014       0.27399134464324565       0.27462848944529927       0.27516866897022796       0.27561135653914226       0.27595612017754761       0.27620262336900253       0.27635062565114343       0.27639998306370656       0.27635064845724144       0.27620267167021573       0.27595619958122503       0.27561147604208369       0.27516884169672573       0.27462873369008783       0.27399168527050938       0.27325832528864102       0.27242937759541808       0.27150566034130852       0.27048808517877992       0.26937765636973349       0.26817546979951606       0.26688271189903295       0.26550065847643450       0.26403067345983239       0.26247420755250628       0.26083279680209093       0.25910806108526779       0.25730170250954243       0.25541550373373978       0.25345132620891819
0.12494013655423426       0.12492811509675027       0.12491419592862620       0.12489819424675749       0.12487993097834368       0.12485923851246422       0.12483596710502877       0.12480999182850050       0.12478121989061483       0.12474959810010976       0.12471512021508427       0.12467783387406747       0.12463784678431475       0.12459533182918292       0.12455053075920915       0.12450375615163344       0.12445539136162034       0.12440588824538026       0.12435576250964162       0.12430558663115163       0.12425598039057711       0.12532907165313445       0.12785278029796643       0.13043454610060293       0.13307245204968565       0.13576450213950864       0.13850860692709582       0.14130256974504549       0.14414407419134809       0.14703067348788965       0.14995978224011750       0.15292867104368327       0.15593446427381083       0.15897414126518522       0.16204454095098741       0.16514236988670739       0.16826421344520295       0.17140654984153050       0.17456576653602471       0.17773817847746454       0.18092004758895472       0.18410760286969374       0.18729706048658326       0.19048464325938924       0.19366659899897631       0.19683921723574166       0.19999884396947556       0.20314189417655182       0.20626486191947296       0.20936432801140814       0.21243696528907310       0.21547954163654276       0.21848892097686090       0.22146206250527886       0.22439601847649679       0.22728793087842700       0.23013502732780203       0.23293461651032188       0.23568408346250561       0.23838088495691964       0.24102254521009731       0.24360665208630505       0.24613085392318179       0.24859285705965833       0.25099042410446876       0.25332137294650708       0.25558357647724822       0.25777496297094987       0.25989351705043034       0.26193728115458492       0.26390435741786222       0.26579290987088916       0.26760116687442081       0.26932742370485047       0.27097004521774448       0.27252746852542464       0.27399820563477179       0.27538084600156465       0.27667405896732172       0.27787659605344533       0.27898729309524584       0.28000507220504728       0.28092894355900960       0.28175800700659021       0.28249145350480093       0.28312856638171596       0.28366872243519253       0.28411139287361903       0.28445614410585041       0.28470263838744692       0.28485063433002017       0.28489998727999649       0.28485064957252110       0.28470267066558796       0.28445619715885978       0.28411147270104553       0.28366883778916963       0.28312872946259632       0.28249168089427518       0.28175832088134539       0.28092937323697814       0.28000565608513206       0.27898808105975625       0.27787765240986934       0.27667546601188758       0.27538270829054101       0.27400065504971655       0.27253067021458405       0.27097420448639353       0.26933279391137810       0.26760805836525225       0.26580169995485664       0.26391550133856329       0.26195132396712878
0.12496078471163223       0.12495290970879570       0.12494379155596708       0.12493330919255675       0.12492134531177375       0.12490779011525860       0.12489254550882951       0.12487552965509775       0.12485668176780391       0.12483596700245851       0.12481338127009474       0.12478895577766382       0.12476276108185581       0.12473491043483220       0.12470556220217287       0.12467492114651776       0.12464323839561345       0.12475609680837173       0.12704678461438026       0.12940270307523127       0.13182190075086112       0.13430238744406778       0.13684212763188391       0.13943903290329085       0.14209095370210065       0.14479567072461336       0.14755088635816732       0.15035421656614453       0.15320318362546473       0.15609521010326666       0.15902761442065474       0.16199760829460622       0.16500229627701732       0.16803867752603735       0.17110364985365978       0.17419401599985856       0.17730649199238407       0.18043771736751452       0.18358426695495905       0.18674266387334837       0.18990939334395701       0.19308091691099888       0.19625368665735046       0.19942415902404342       0.20258880787843031       0.20574413652676271       0.20888668842856661       0.21201305643877288       0.21511989047504568       0.21820390357825364       0.22126187640000386       0.22429066020962873       0.22728717856167496       0.23024842780227214       0.23317147661801507       0.23605346484419984       0.23889160175110363       0.24168316401873485       0.24442549359377230       0.24711599559917274       0.24975213643919603       0.25233144221237269       0.25485149751408337       0.25730994468055313       0.25970448349850495       0.26203287138046122       0.26429292398537169       0.26648251624821484       0.26859958377050480       0.27064212451603331       0.27260820075231096       0.27449594117751913       0.27630354317476369       0.27802927513941617       0.27967147883074867       0.28122857170534954       0.28269904919649125       0.28408148691028551       0.28537454271581852       0.28657695871226802       0.28768756306113286       0.28870527167607229       0.28962908976644092       0.29045811323344678       0.29119152992000674       0.29182862071691279       0.29236876052893762       0.29281141910510389       0.29315616173759262       0.29340264983377612       0.29355064136568398       0.29359999120092239       0.29355065131871394       0.29340267091434008       0.29315619639489426       0.29281147126889545       0.29236883593199592       0.29182872735073939       0.29119167864610096       0.29045831857835502       0.28962937093468011       0.28870565382081231       0.28768807885799158       0.28657765028641546       0.28537546397640223       0.28408270634848082       0.28270065320365162       0.28123066846510419       0.27967420283273137       0.27803279235183709       0.27630805689750038       0.27450169857612877       0.27261550004580171       0.27065132275708198
0.12497476915727751       0.12496970243642040       0.12496383588177304       0.12495709160382261       0.12494939412822234       0.12494067281149500       0.12493086454054543       0.12491991666178003       0.12490779006574790       0.12489446233374336       0.12487993083493945       0.12486421564764520       0.12484736216750457       0.12527811627407234       0.12729945117495456       0.12939398119574108       0.13155978140623487       0.13379488475106599       0.13609728221881356       0.13846492205492433       0.14089570803496124       0.14338749686000191       0.14593809478193184       0.14854525361043233       0.15120666629306495       0.15391996229250690       0.15668270300846190       0.15949237750426487       0.16234639879848403       0.16524210096936717       0.16817673729498878       0.17114747961540350       0.17415141905670181       0.17718556820291334       0.18024686474302939       0.18333217656013073       0.18643830817093743       0.18956200837016104       0.19269997888764315       0.19584888382973850       0.19900535965143865       0.20216602539330736       0.20532749291762634       0.20848637689068553       0.21163930428167527       0.21478292318134451       0.21791391078325256       0.22102898041456334       0.22412488754932822       0.22719843478256602       0.23024647578590451       0.23326591830317175       0.23625372627564004       0.23920692121065115       0.24212258292360994       0.24499784979184161       0.24782991866000792       0.25061604453147551       0.25335354016929174       0.25603977571548575       0.25867217841958839       0.26124823254783158       0.26376547952465618       0.26622151833895674       0.26861400622978182       0.27094065965062125       0.27319925549836499       0.27538763258272608       0.27750369330440422       0.27954540550539930       0.28151080445242060       0.28339799491394108       0.28520515329274787       0.28693052977843397       0.28857245048779012       0.29012931956512722       0.29159962121888416       0.29298192167519593       0.29427487103321232       0.29547720501072944       0.29658774657202186       0.29760540743260439       0.29852918943799633       0.29935818581541390       0.30009158229873550       0.30072865812810362       0.30126878692621467       0.30171143745376217       0.30205617424669584       0.30230265813799556       0.30245064666658245       0.30249999437583391       0.30245065300397905       0.30230267156843349       0.30205619634593023       0.30171147075010174       0.30126883510800179       0.30072872633691167       0.30009167752265997       0.29935831740060503       0.29852936974037098       0.29760565263539818       0.29658807769836265       0.29547764916352748       0.29427546289711781       0.29298270531685100       0.29160065222180220       0.29013066753384670       0.28857420195198163       0.28693279152090134       0.28520805611527134       0.28340169784121927       0.28151549935663700       0.27955132211196365
0.12498405623975116       0.12498085450086564       0.12497714733473837       0.12497288552179255       0.12496802136863130       0.12496251023455764       0.12495631223743750       0.12494939410465514       0.12546752567078467       0.12710051381643767       0.12881606626327627       0.13061249359364985       0.13248804183639040       0.13444089558635375       0.13646918082451015       0.13857096735280647       0.14074427076820575       0.14298705391540209       0.14529722777741480       0.14767265178695954       0.15011113356824568       0.15261042814744344       0.15516823669906046       0.15778220492328607       0.16044992117436327       0.16316891448066334       0.16593665261194823       0.16875054035718262       0.17160791817642057       0.17450606138240182       0.17744217999168710       0.18041341936204830       0.18341686170348892       0.18644952851616592       0.18950838397139416       0.19259033921380936       0.19569225752568231       0.19881096026028258       0.20194323342186751       0.20508583474678124       0.20823550112437117       0.21138895618857220       0.21454291791121338       0.21769410603602088       0.22083924920715406       0.22397509166678031       0.22709839942125820       0.23020596580338304       0.23329461638721680       0.23636121324069609       0.23940265852804352       0.24241589749779122       0.24539792091202073       0.24834576698761293       0.25125652293058798       0.25412732614999983       0.25695536523862250       0.25973788080432492       0.26247216622926239       0.26515556842458665       0.26778548863712881       0.27035938335224752       0.27287476532451965       0.27532920475583667       0.27772033062929763       0.28004583219746287       0.28230346061530553       0.28449103070172049       0.28660642280872095       0.28864758477440305       0.29061253393422581       0.29249935916492914       0.29430622293626052       0.29603136334734953       0.29767309612681275       0.29922981657827918       0.30070000145578091       0.30208221075621849       0.30337508941873886       0.30457736892327719       0.30568786878264836       0.30670549792439955       0.30762925596014906       0.30845823434133940       0.30919161740126239       0.30982868328389174       0.31036880476052597       0.31081144993553927       0.31115618284269880       0.31140266393356192       0.31155065045945424       0.31159999674846495       0.31155065437881102       0.31140267224981921       0.31115619655168136       0.31081147063504616       0.31036883478144112       0.30982872587546090       0.30919167697962102       0.30845831681275948       0.30762936913286743       0.30670565202524330       0.30568807709689771       0.30457764857817315       0.30337546233259527       0.30208270477603111       0.30070065170629279       0.29923066704439621       0.29767420148875556       0.29603279108367070       0.29430805570354085       0.29250169745431476       0.29061549899376504       0.28865132177225233
0.12499010462130868       0.12578246335832027       0.12679773720789547       0.12790552040022074       0.12910468747605722       0.13039402431700306       0.13177223037507085       0.13323792108052501       0.13478963039768199       0.13642581349065019       0.13814484945389527       0.13994504405655786       0.14182463244514501       0.14378178174704151       0.14581459351766765       0.14792110597735880       0.15009929599033320       0.15234708074745390       0.15466231912669487       0.15704281271989839       0.15948630653099155       0.16199048936854882       0.16455299397356235       0.16717139694052269       0.16984321850540884       0.17256592228695899       0.17533691507676508       0.17815354677860443       0.18101311059750355       0.18391284357411572       0.18684992755016774       0.18982149063637069       0.19282460923596526       0.19585631065589293       0.19891357631455112       0.20199334553143183       0.20509251986091492       0.20820796791132079       0.21133653057211826       0.21447502655784656       0.21762025816751243       0.22076901715334224       0.22391809059289250       0.22706426666343529       0.23020434022675748       0.23333511814534239       0.23645342426645694       0.23955610402797875       0.24264002865783932       0.24570209895676001       0.24873924867061650       0.25174844747353364       0.25472670359510802       0.25767106613459018       0.26057862711125424       0.26344652330353446       0.26627193792999937       0.26905210222317738       0.27178429694305656       0.27446585387125005       0.27709415731985215       0.27966664568141825       0.28218081303875159       0.28463421084568175       0.28702444968310559       0.28934920108848233       0.29160619945189364       0.29379324396777795       0.29590820062854162       0.29794900424437654       0.29991366047269108       0.30180024784044807       0.30360691974325371       0.30533190640610758       0.30697351679214491       0.30853014044734578       0.31000024927093173       0.31138239920290928       0.31267523182188878       0.31387747584783138       0.31498794854573675       0.31600555702744948       0.31692929944973169       0.31775826610753399       0.31849164042200484       0.31912869982323278       0.31966881652804263       0.32011145821338444       0.32045618858598551       0.32070266784901102       0.32085065306650079       0.32089999842634986       0.32085065540258056       0.32070267281762815       0.32045619680533866       0.32011147067535667       0.31966883467957513       0.31912872568131517       0.31849167672792317       0.31775831652749137       0.31692936883044709       0.31600565171679817       0.31498807678987650       0.31387764827748149       0.31267546204139002       0.31138270449627276       0.31000065143912692       0.30853066679041563       0.30697420124817909       0.30533279085646553       0.30360805548950504       0.30180169725313338       0.29991549880504798       0.29795132159556048
0.13436459706492818       0.13528710263598520       0.13630327479452320       0.13741209069610463       0.13861243643840629       0.13990310872022141       0.14128281665767720       0.14275018374355483       0.14430374993075776       0.14594197381623197       0.14766323489728672       0.14946583586859830       0.15134800492552444       0.15330789803799827       0.15534360115947307       0.15745313233733921       0.15963444369503965       0.16188542326177638       0.16420389663310939       0.16658762845467190       0.16903432373130522       0.17154162897469191       0.17410713321349983       0.17672836890053395       0.17940281276081754       0.18212788663228718       0.18490095835635725       0.18771934277855723       0.19058030291947642       0.19348105137323934       0.19641875198472528       0.19939052184797920       0.20239343365713580       0.20542451842825415       0.20848076859640940       0.21155914147795285       0.21465656307380518       0.21776993217673621       0.22089612473447531       0.22403199841175242       0.22717439728838937       0.23032015662758243       0.23346610764858858       0.23660908224101965       0.23974591756357075       0.24287346047782793       0.24598857177728514       0.24908813018225265       0.25216903608234253       0.25522821501907172       0.25826262091128199       0.26126923903508698       0.26424508877755704       0.26718722618911506       0.27009274636352248       0.27295878567639326       0.27578252391348174       0.27856118631875237       0.28129204558969934       0.28397242384384325       0.28659969457610485       0.28917128462214420       0.29168467613804888       0.29413740860220372       0.29652708084098101       0.29885135307620625       0.30110794898927989       0.30329465779442000       0.30540933631174311       0.30744991102978519       0.30941438014652700       0.31130081557794703       0.31310736492348773       0.31483225337850057       0.31647378558462907       0.31803034741012209       0.31950040765316334       0.32088251966239661       0.32217532286987260       0.32337754423260651       0.32448799957979729       0.32550559486350350       0.32642932731119501       0.32725828647911254       0.32799165520577389       0.32862871046527614       0.32916882412027820       0.32961146357471766       0.32995619232643103       0.33020267041992918       0.33035065479963011       0.33039999956388688       0.33035065612017489       0.33020267324182240       0.32995619702669182       0.32961147075824404       0.32916883466944985       0.32862872561004908       0.32799167661770562       0.32725831639365438       0.32642936868349742       0.32550565156386901       0.32448807663575696       0.32337764812534098       0.32217546189328583       0.32088270435350219       0.31950065130247046       0.31803066666030405       0.31647420112480740       0.31483279073987047       0.31310805537961739       0.31130169714981337       0.30941549870810936       0.30745132150478660
0.14406701769966582       0.14499000936932527       0.14600674436209959       0.14711620730622987       0.14831729154036200       0.14960880054078729       0.15098944947867043       0.15245786689835136       0.15401259650487456       0.15565209904602634       0.15737475427151792       0.15917886294972572       0.16106264892077632       0.16302426116391924       0.16506177585721987       0.16717319840874112       0.16935646544063152       0.17160944671089906       0.17392994696205805       0.17631570769115104       0.17876440884165293       0.18127367042419307       0.18384105407954887       0.18646406460361920       0.18914015145970384       0.19186671030804148       0.19464108458587162       0.19746056717303129       0.20032240217809635       0.20322378687825526       0.20616187384248935       0.20913377326236784       0.21213655550809002       0.21516725391965649       0.21822286783462441       0.22130036584524912       0.22439668926939374       0.22750875581184796       0.23063346338604018       0.23376769406088194       0.23690831809389998       0.24005219801002131       0.24319619268541651       0.24633716139759571       0.24947196780631539       0.25259748383453656       0.25571059342435293       0.25880819614912959       0.26188721066968251       0.26494457802883320       0.26797726478476136       0.27098226598897945       0.27395660801925259       0.27689735128124615       0.27980159279503319       0.28266646868383738       0.28548915658258434       0.28826687798310929       0.29099690053135907       0.29367654028982809       0.29630316397594969       0.29887419118442549       0.30138709659867402       0.30383941219388022       0.30622872943163421       0.30855270144396568       0.31080904520276487       0.31299554366915583       0.31511004791636937       0.31715047921901929       0.31911483110139222       0.32100117133736367       0.32280764389479838       0.32453247081772957       0.32617395404017724       0.32773047712611364       0.32920050693077341       0.33058259517918737       0.33187537995848432       0.33307758712111019       0.33418803159666777       0.33520561861055598       0.33612934480800072       0.33695829928240834       0.33769166450725363       0.33832871717093632       0.33886882891421666       0.33931146696998044       0.33965619470518771       0.33990267206494873       0.34005065591873634       0.34010000030880538       0.34005065660093997       0.33990267353770443       0.33965619719441970       0.33931147083814472       0.33886883468999845       0.33832872559121496       0.33769167657339472       0.33695831633347950       0.33612936861405129       0.33520565148963344       0.33418807655974753       0.33307764804956130       0.33187546181904481       0.33058270428163461       0.32920065123348935       0.32773066659450467       0.32617420106233908       0.32453279068078439       0.32280805532389950       0.32100169709740617       0.31911549865892685       0.31715132145872427
0.15396850549546762       0.15489179593609564       0.15590887686388782       0.15701873750002029       0.15822027563365812       0.15951229890674876       0.16089352621206665       0.16236258919879318       0.16391803387815287       0.16555832231990414       0.16728183442889255       0.16908686978953275       0.17097164956509489       0.17293431843814311       0.17497294657849383       0.17708553162569712       0.17927000067433693       0.18152421225239240       0.18384595828546516       0.18623296604277312       0.18868290006431687       0.19119336407237628       0.19376190287430214       0.19638600426722158       0.19906310095855381       0.20179057251893179       0.20456574738605021       0.20738590493896647       0.21024827766236018       0.21315005341916710       0.21608837784786014       0.21906035689753764       0.22206305951003760       0.22509352045372516       0.22814874330863161       0.23122570359752392       0.23432135205252125       0.23743261800231288       0.24055641286111018       0.24368963369737301       0.24682916685823739       0.24997189162451453       0.25311468387115055       0.25625441970908602       0.25938797908643113       0.26251224932962530       0.26562412860859125       0.26872052931361162       0.27179838133553585       0.27485463524475490       0.27788626536796673       0.28089027276493800       0.28386368811012469       0.28680357448605426       0.28970703009676751       0.29257119091035910       0.29539323323978878       0.29817037627071730       0.30089988454425598       0.30357907040129484       0.30620529639361677       0.30877597766540904       0.31128858430716039       0.31374064368236027       0.31612974272597927       0.31845353021244294       0.32070971898977213       0.32289608817574933       0.32501048531139431       0.32705082846668582       0.32901510829331632       0.33090139001929908       0.33270781538042116       0.33443260448382012       0.33607405759932857       0.33763055687464150       0.33910056797079835       0.34048264161490926       0.34177541506747383       0.34297761350203754       0.34408805129528514       0.34510563322598981       0.34602935558151415       0.34685830717079391       0.34759167024293897       0.34822872131075233       0.34876883187861063       0.34921146907426764       0.34955619618424472       0.34980267309255919       0.34995065662262248       0.35000000078221127       0.34995065691148730       0.34980267373410801       0.34955619731154142       0.34921147090076748       0.34876883471562214       0.34822872559211326       0.34759167655811651       0.34685831630793612       0.34602936858229943       0.34510565145443378       0.34408807652296103       0.34297764801242786       0.34177546178237855       0.34048270424595933       0.33910065119913174       0.33763066656165880       0.33607420103110969       0.33443279065121650       0.33270805529599856       0.33090169707115152       0.32901549863428059       0.32705132143563709
0.16406940261911074       0.16499287321515899       0.16601016273774352       0.16712026317752673       0.16832207500728497       0.16961440838080766       0.17099598443495675       0.17246543669109679       0.17402131255105219       0.17566207488171517       0.17738610368147587       0.17919169782083400       0.18107707684894686       0.18304038285752786       0.18507968239348979       0.18719296841206060       0.18937816226281448       0.19163311570215494       0.19395561292723529       0.19634337262806190       0.19879405005652082       0.20130523911320788       0.20387447445511486       0.20649923362930847       0.20917693923960817       0.21190496115480301       0.21468061876803773       0.21750118331755769       0.22036388027896905       0.22326589183852336       0.22620435945567796       0.22917638652137087       0.23217904111615492       0.23520935886968200       0.23826434592014556       0.24134098196932982       0.24443622342603988       0.24754700662804011       0.25067025113035574       0.25380286304599831       0.25694173842394941       0.26008376664862198       0.26322583384502440       0.26636482627445823       0.26949763370671953       0.27262115275636450       0.27573229017252948       0.27882796607394750       0.28190511712304611       0.28496069963522852       0.28799169262151719       0.29099510076458507       0.29396795732974157       0.29690732701362971       0.29981030873420789       0.30267403836602924       0.30549569142492250       0.30827248570595134       0.31100168387804666       0.31368059603801390       0.31630658222579644       0.31887705490197304       0.32138948138754847       0.32384138626521330       0.32623035374043891       0.32855402996006583       0.33081012528546966       0.33299641651694212       0.33511074906562105       0.33715103906912741       0.33911527544701270       0.34100152189216504       0.34280791879445455       0.34453268509309354       0.34617412005442932       0.34773060497215819       0.34920060478723436       0.35058266962503354       0.35187543624760831       0.35307762941913545       0.35418806318289719       0.35520564204835725       0.35612936208709139       0.35695831193650374       0.35769167371041538       0.35832872381574754       0.35886883367463979       0.35931147035145339       0.35965619708420710       0.35990267372008072       0.36005065705471206       0.36010000107508883       0.36005065710592365       0.35990267385947416       0.35965619738885635       0.35931147094497318       0.35886883473727005       0.35832872559860435       0.35769167655460626       0.35695831629799063       0.35612936856836708       0.35520565143818211       0.35418807650551559       0.35307764799454044       0.35187546176454471       0.35058270422849985       0.34920065118224924       0.34773066654547607       0.34617420101569613       0.34453279063660586       0.34280805528220082       0.34100169705816114       0.33911549862208173       0.33715132142420723
0.17436993336715151       0.17529351054508599       0.17631092347459495       0.17742116578479861       0.17862313953612655       0.17991565636840093       0.18129743874610993       0.18276712129822190       0.18432325224925508       0.18596429493769476       0.18768862941727310       0.18949455413613023       0.19138028768849707       0.19334397063331213       0.19538366737413979       0.19749736809491286       0.19968299074639645       0.20193838307885739       0.20426132471721642       0.20664952927592656       0.20910064651192592       0.21161226451519694       0.21418191193767036       0.21680706026236748       0.21948512611571000       0.22221347362677227       0.22498941683784648       0.22781022217098634       0.23067311095515522       0.23357526201821743       0.23651381434728000       0.23948586981984576       0.24248849600692199       0.24551872904770708       0.24857357659383048       0.25165002081942756       0.25474502149169154       0.25785551909503057       0.26097843800066239       0.26411068967245177       0.26724917589909619       0.27039079204240707       0.27353243029143909       0.27667098291255587       0.27980334548616775       0.28292642012177988       0.28603711864408304       0.28913236574404388       0.29220910209022771       0.29526428739684807       0.29829490344622350       0.30129795706437679       0.30427048304939347       0.30720954705284437       0.31011224841504870       0.31297572295521897       0.31579714571759210       0.31857373367453951       0.32130274838738954       0.32398149862532272       0.32660734294225108       0.32917769221110132       0.33169001211442156       0.33414182558975175       0.33653071522776190       0.33885432562078482       0.34111036565907005       0.34329661077185669       0.34541090511022143       0.34745116366858164       0.34941537434173542       0.35130159991437437       0.35310797998010995       0.35483273278719718       0.35647415700831087       0.35803063343191255       0.35950062657294646       0.36088268620079605       0.36217544878262731       0.36337763884043062       0.36448807022024354       0.36550564727220408       0.36642936594022635       0.36725831476023485       0.36799167576601294       0.36862872530184115       0.36916883474120715       0.36961147111096909       0.36995619762045118       0.37020267409504054       0.37035065731394395       0.37040000125185080       0.37035065722433397       0.37020267393690764       0.36995619743774660       0.36961147097415953       0.36916883475299433       0.36862872560524507       0.36799167655521381       0.36725831629467548       0.36642936856257874       0.36550565143090857       0.36448807649742426       0.36337764798607802       0.36217546175600657       0.36088270422007812       0.35950065117406649       0.35803066653760768       0.35647420100818594       0.35483279062947698       0.35310805527546241       0.35130169705181313       0.34941549861611804       0.34745132141861812
0.18487024145943062       0.18579388050674944       0.18681136507235607       0.18792168973647388       0.18912375748114432       0.19041638080881199       0.19179828295463461       0.19326809919053003       0.19482437821857937       0.19646558365102160       0.19819009557371414       0.19999621218962318       0.20188215153865741       0.20384605328999980       0.20588598060302923       0.20799992205297838       0.21018579361764847       0.21244144072179702       0.21476464033622389       0.21715310312909042       0.21960447566758998       0.22211634266872055       0.22468622929855422       0.22731160352001395       0.22998987848972077       0.23271841500492041       0.23549452400180573       0.23831546910669471       0.24117846924147932       0.24408070128452425       0.24701930278776982       0.24999137475018973       0.25299398444700666       0.25602416831320401       0.25907893487894090       0.26215526775351988       0.26525012865363412       0.26836046047076367       0.27148319037186236       0.27461523292689499       0.27775349325638787       0.28089487019195353       0.28403625944274552       0.28717455676098652       0.29030666110007181       0.29342947775925177       0.29653992150950931       0.29963491969593242       0.30271141531259627       0.30576637004667873       0.30879676728919930       0.31179961511036663       0.31477194919802248       0.31771083575806036       0.32061337437597426       0.32347670083885199       0.32629798991717751       0.32907445810575991       0.33180336632297874       0.33448202256734555       0.33710778453015072       0.33967806216270963       0.34219032019646761       0.34464208061397639       0.34703092506853489       0.34935449725010470       0.35161050519496567       0.35379672353647912       0.35591099569427270       0.35795123599914902       0.35991543175105051       0.36180164520747249       0.36360801549980865       0.36533276047522267       0.36697417846177011       0.36853064995463058       0.37000063922145521       0.37138269582497851       0.37267545606118901       0.37387764431149095       0.37498807430742448       0.37600565030664074       0.37692936817894857       0.37775831640136476       0.37849167696121189       0.37912872616640891       0.37966883536220164       0.38011147155367847       0.38045619793350693       0.38070267431442395       0.38085065746609853       0.38090000135608121       0.38085065729463968       0.38070267398337365       0.38045619746759018       0.38011147099251108       0.37966883476347729       0.37912872561040090       0.37849167655681348       0.37775831629394441       0.37692936856035886       0.37600565142777387       0.37498807649376309       0.37387764798215056       0.37267546175198518       0.37138270421607561       0.37000065117015507       0.36853066653383237       0.36697420100457373       0.36533279062604257       0.36360805527221263       0.36180169704874937       0.35991549861323846       0.35795132141591846
0.19557041695093030       0.19649409123947822       0.19751161660950128       0.19862198818297777       0.19982410946690554       0.20111679345508499       0.20249876382165249       0.20396865620475432       0.20552501957849484       0.20716631771104491       0.20889093070656092       0.21069715662835606       0.21258321320059345       0.21454723958564517       0.21658729823419354       0.21870137680514459       0.22088739015248576       0.22314318237634836       0.22546652893572700       0.22785513882055491       0.23030665678112494       0.23281866561315995       0.23538868849716296       0.23801419139098468       0.24069258547482394       0.24342122964809387       0.24619743307773190       0.24901845779758566       0.25188152135846265       0.25478379952827918       0.25772242904149484       0.26069451039666697       0.26369711070053731       0.26672726655657059       0.26978198699534212       0.27285825644363582       0.27595303772859331       0.27906327511277929       0.28218589735561816       0.28531782079633045       0.28845595245327521       0.29159719313448745       0.29473844055419313       0.29787659245018427       0.30100854969713142       0.30413121941118570       0.30724151804155836       0.31033637444514289       0.31341273294064093       0.31646755633904439       0.31949782894769957       0.32250055954551193       0.32547278432713456       0.32841156981420683       0.33131401573187580       0.33417725784893082       0.33699847077992418       0.33977487074764207       0.34250371830423587       0.34518232100923890       0.34780803606258587       0.35037827289063611       0.35289049568308040       0.35534222587850228       0.35773104459626759       0.36005459501234111       0.36231058467657568       0.36449678776899513       0.36661104729258842       0.36865127720015883       0.37061546445281474       0.37250167100775705       0.37430803573309684       0.37603277624753351       0.37767419068282504       0.37923065936709566       0.38070064642713675       0.38208270130797423       0.38337546020809277       0.38457764742881773       0.38568807663647081       0.38670565203602236       0.38762936945506993       0.38845831733707648       0.38919167764290030       0.38982872665974827       0.39036883571677994       0.39081147180668335       0.39115619811263852       0.39140267444017662       0.39155065755353413       0.39160000141619539       0.39155065733540612       0.39140267401053658       0.39115619748526009       0.39081147100361041       0.39036883477006967       0.38982872561393411       0.38919167655829634       0.38845831629407501       0.38762936855961705       0.38670565142648694       0.38568807649215248       0.38457764798036492       0.38337546175012321       0.38208270421420198       0.38070065116831148       0.37923066653204518       0.37767420100285876       0.37603279062440892       0.37430805527066485       0.37250169704728903       0.37061549861186510       0.36865132141463053
0.20647051504401781       0.20739420903107458       0.20841175720921681       0.20952215500324331       0.21072430621358268       0.21201702410868439       0.21339903260805734       0.21486896755455553       0.21642537807433401       0.21806672802272359       0.21979139751410912       0.22159768453374315       0.22348380662929898       0.22544790267986073       0.22748803473997620       0.22960218995635967       0.23178828255482944       0.23404415589510114       0.23636758459112761       0.23875627669477642       0.24120787594076210       0.24371996405088769       0.24629006309579859       0.24891563791258636       0.25159409857670484       0.25432280292675102       0.25709905914071557       0.25992012836231593       0.26278322737597520       0.26568553132891171       0.26862417649864390       0.27159626310401563       0.27459885815759422       0.27762899835701893       0.28068369301257884       0.28375992700799868       0.28685466379111862       0.28996484839088771       0.29308741045686071       0.29621926731720488       0.29935732705109558       0.30249849157131298       0.30563965971284218       0.30877773032333294       0.31190960535137585       0.31503219292870033       0.31814241044258335       0.32123718759496045       0.32431346944494888       0.32736821943170985       0.33039842237478156       0.33340108744920421       0.33637325113291877       0.33931198012405461       0.34221437422581968       0.34507756919677490       0.34789873956431283       0.35067510139916908       0.35340391504878738       0.35608248782732876       0.35870817666007893       0.36127839067996670       0.36379059377386236       0.36624230707629207       0.36863111140817340       0.37095464965816632       0.37321062910422942       0.37539682367298799       0.37751107613454604       0.37955130023041944       0.38151548273232122       0.38340168542959902       0.38520804704319905       0.38693278506411766       0.38857419751439026       0.39013066462876345       0.39160065045529313       0.39298270437321070       0.39427546252649992       0.39547764917172518       0.39658807793875356       0.39760565300310863       0.39852937016879386       0.39935831786051673       0.40009167802434287       0.40072872693590239       0.40126883591536278       0.40171147194848100       0.40205619821313393       0.40230267451082519       0.40245065760275450       0.40250000145013332       0.40245065735851859       0.40230267402603415       0.40205619749544041       0.40171147101010674       0.40126883477403563       0.40072872561617889       0.40009167655938382       0.39935831629439555       0.39852936855943882       0.39760565142599313       0.39658807649146705       0.39547764797957108       0.39427546174927636       0.39298270421333847       0.39160065116745485       0.39013066653121048       0.38857420100205514       0.38693279062364178       0.38520805526993690       0.38340169704660154       0.38151549861121825       0.37955132141402359
0.21757056885239437       0.21849427364495000       0.21951183433434929       0.22062224651150125       0.22182441413779419       0.22311715063233470       0.22449918004922928       0.22596913834362323       0.22752557472507789       0.22916695309673535       0.23089165357859115       0.23269797411307810       0.23458413215105714       0.23654826641621643       0.23858843874580665       0.24070263600558228       0.24288877207678330       0.24514468991297475       0.24746816366456692       0.24985690086885712       0.25230854470347036       0.25482067630111771       0.25739081712363865       0.26001643139333902       0.26269492857967164       0.26542366593932898       0.26819995110782113       0.27102104474058974       0.27388416320166270       0.27678648129777772       0.27972513505580132       0.28269722454114210       0.28569981671470857       0.28872994832579862       0.29178462883813699       0.29486084338610041       0.29795555575800947       0.30106571140320870       0.30418824045952852       0.30732006079761703       0.31045808107855394       0.31359920382112072       0.31674032847508815       0.31987835449691182       0.32301018442427448       0.32613272694599504       0.32924289996392092       0.33233763364353003       0.33541387345009038       0.33846858316734163       0.34149874789578172       0.34450137702774802       0.34747350719657755       0.35041220519721211       0.35331457087567941       0.35617773998492980       0.35899888700454452       0.36177522792185302       0.36450402297200779       0.36718257933457238       0.36980825378417542       0.37237845529278601       0.37489064758116436       0.37734235161704749       0.37973114805764119       0.38205467963400580       0.38431065347495424       0.38649684336811135       0.38861109195583365       0.39065131286373644       0.39261549275964114       0.39450169334082041       0.39630805324749419       0.39803278990060803       0.39967420126200970       0.40123066751522379       0.40270065266511673       0.40408270605482860       0.40537546379844702       0.40657765012798303       0.40768807865330670       0.40870565353378890       0.40962937056049059       0.41045831814783096       0.41119167823376157       0.41182872708756180       0.41236883602446689       0.41281147202643176       0.41315619826842426       0.41340267454973856       0.41355065762990895       0.41360000146889997       0.41355065737134211       0.41340267403467562       0.41315619750116017       0.41281147101380072       0.41236883477633657       0.41182872561753064       0.41119167656009575       0.41045831629468177       0.40962936855944659       0.40870565142582288       0.40768807649118688       0.40657764797922680       0.40537546174889832       0.40408270421294684       0.40270065116706261       0.40123066653082595       0.39967420100168349       0.39803279062328606       0.39630805526959889       0.39450169704628202       0.39261549861091732       0.39065132141374109
0.22887059781988070       0.22979430842952575       0.23081187585430124       0.23192229577454093       0.23312447223828500       0.23441721874574564       0.23579925942348931       0.23726923028711269       0.23882568059107870       0.24046707426426825       0.24219179142969741       0.24399813000674728       0.24588430739416017       0.24784846223196769       0.24988865624043954       0.25200287613407701       0.25418903560861777       0.25644497739897770       0.25876847540602116       0.26115723689002890       0.26360890472871973       0.26612105973766942       0.26869122305096993       0.27131685855996018       0.27399537540785496       0.27672413053808143       0.27950043129410768       0.28232153806851445       0.28518466699901190       0.28808699270904159       0.29102565109053274       0.29399774212629282       0.29700033274941995       0.30003045973702253       0.30308513263542625       0.30616133671394541       0.30925603594419659       0.31236617600184213       0.31548868728757345       0.31862048796408049       0.32175848700570869       0.32489958725747708       0.32804068850012369       0.33117869051785165       0.33431049616547881       0.33743301443173052       0.34054316349547065       0.34363787377172322       0.34671409094440536       0.34976877898275888       0.35279892313853511       0.35580153292105232       0.35877364504730419       0.36171232636435113       0.36461467674127268       0.36747783192799854       0.37029896637837123       0.37307529603481870       0.37580408107204216       0.37848262859714499       0.38110829530365031       0.38367849007687549       0.38619067654815598       0.38864237559543890       0.39103116778779617       0.39335469577144555       0.39561066659490779       0.39779685397097775       0.39991110047323941       0.40195131966491360       0.40391549815789229       0.40580169759988005       0.40760805658763805       0.40933279250440052       0.41097420327961315       0.41253066906922597       0.41400065385485402       0.41538270696020818       0.41667546448328124       0.41787765064286642       0.41898807903806828       0.42000565381956217       0.42092937077144127       0.42175831830258637       0.42249167834658069       0.42312872716928474       0.42366883608327865       0.42411147206847033       0.42445619829826170       0.42470267457075767       0.42485065764459568       0.42490000147906903       0.42485065737830963       0.42470267403938960       0.42445619750429903       0.42411147101584684       0.42366883477763045       0.42312872561831133       0.42249167656052983       0.42175831629488447       0.42092936855949725       0.42000565142577556       0.41898807649107828       0.41787764797908156       0.41667546174873288       0.41538270421277212       0.41400065116688567       0.41253066653065118       0.41097420100151388       0.40933279062312322       0.40760805526944388       0.40580169704613528       0.40391549861077902       0.40195132141361123
