ncols 251
nrows 32
xllcorner 499670
yllcorner 4176740
cellsize 10
NODATA_value  -9999
3017.537231 3017.881266 3017.942017 3018.527344 3019.165568 3019.189453 3018.953084 3019.514608 3020.007935 3020.499227 3021.719116 3022.784546 3023.583333 3024.831706 3024.984985 3024.543457 3024.734294 3025.778076 3026.077433 3027.390706 3027.942017 3027.552531 3027.08256 3026.98645 3027.038574 3027.00175 3027.112549 3027.210938 3027.501668 3027.055542 3026.348063 3025.826416 3025.332031 3024.583293 3023.481608 3022.75647 3022.218994 3021.574056 3020.449951 3020.028768 3019.18221 3017.442993 3016.644287 3016.985067 3016.560059 3015.232992 3014.852946 3014.26355 3013.633464 3012.511841 3010.582031 3008.561035 3006.554403 3005.384033 3005.062988 3005.039591 3004.015991 3002.543538 3001.399333 3000.994507 2998.95695 2996.77596 2994.424072 2992.467204 2990.739705 2988.662964 2986.344401 2983.945923 2981.272461 2977.872721 2974.60612 2972.440063 2969.95992 2966.182251 2962.848511 2959.755452 2956.517944 2952.953003 2950.069865 2947.17395 2944.151978 2941.866781 2940.78422 2940.648438 2939.19458 2937.432088 2936.369507 2934.567952 2933.273804 2932.326416 2931.42509 2930.568563 2928.937012 2926.612427 2924.608439 2923.083008 2921.689087 2919.970744 2917.620483 2915.502808 2913.835327 2910.894531 2907.68575 2905.117391 2903.234009 2900.631795 2897.55013 2893.56897 2889.775716 2886.770752 2883.791992 2880.940592 2878.671509 2876.717041 2874.227661 2870.985067 2868.13855 2866.21521 2863.289388 2860.625 2858.358032 2855.224691 2851.636108 2848.152995 2844.868896 2841.357544 2837.684896 2833.223226 2828.786499 2824.876343 2818.834676 2813.407471 2809.810059 2807.103353 2804.088501 2800.802572 2797.480835 2793.617065 2790.170736 2786.830892 2783.816528 2780.886963 2778.072021 2775.040039 2771.920288 2768.121257 2764.083008 2760.024048 2755.150594 2751.141968 2747.435588 2743.045736 2738.433472 2733.484212 2728.896606 2724.170898 2719.673258 2714.887288 2709.939453 2704.660889 2698.994995 2692.766968 2685.823975 2678.683268 2671.757568 2665.408773 2659.361206 2653.264526 2646.935791 2640.673381 2634.55542 2628.32194 2621.974487 2615.436523 2608.426758 2601.298462 2594.696411 2588.579346 2582.416016 2576.041992 2569.504232 2563.029215 2556.835938 2550.67749 2544.616699 2538.437012 2532.179565 2525.620524 2519.022461 2512.625366 2506.516154 2500.672485 2494.751221 2488.770386 2482.862061 2477.041463 2471.654907 2466.515503 2461.373861 2455.972249 2450.619507 2445.098145 2439.662354 2434.512451 2429.729818 2425.354004 2420.937988 2416.142212 2411.384725 2406.515015 2401.578369 2396.506755 2391.597534 2386.714111 2381.841471 2377.05249 2372.195353 2367.476115 2362.861938 2358.497152 2354.20638 2349.970093 2345.9045 2341.727051 2337.491943 2333.128906 2328.916463 2324.659546 2320.206828 2315.629395 2310.728027 2305.67631 2300.362996 2294.862061 2289.433228 2283.837321 2278.011963 2272.138428 2266.182414 2260.325562 2254.880737 2249.779826 2245.02002 2240.368774 2235.468669 2230.548462 2225.547078 2220.231934 2214.838989 2209.597412 2204.396403
3016.071994 3015.955485 3015.667033 3015.947049 3016.816461 3017.384521 3017.623237 3018.325616 3018.644368 3019.444634 3020.538452 3021.047078 3021.591729 3022.656657 3023.359823 3022.716092 3022.862508 3023.369385 3023.905477 3024.825751 3025.577026 3026.163262 3025.558268 3025.378255 3025.593994 3026.110419 3026.262166 3026.337918 3026.694702 3026.160482 3025.257256 3024.87694 3024.461833 3023.371568 3022.428033 3022.262655 3021.626967 3020.744941 3019.416178 3018.933445 3017.858955 3015.668254 3014.921943 3014.956597 3014.185506 3012.925659 3011.911187 3011.198853 3010.603068 3009.573066 3008.352661 3006.686442 3004.375922 3002.372192 3001.17688 3001.726671 3000.84314 2999.614393 2999.016656 2997.997803 2995.852837 2994.086683 2992.440023 2990.777547 2989.442776 2987.507853 2984.99037 2981.933187 2979.37321 2976.877835 2974.163534 2971.249715 2968.365397 2965.170885 2962.176147 2958.605469 2954.637845 2950.515869 2947.869086 2945.92315 2943.353231 2941.30207 2939.975165 2939.334473 2937.473619 2935.848863 2934.528158 2932.507758 2931.80348 2931.589193 2930.390991 2929.574951 2927.428792 2924.838392 2923.672553 2922.198324 2920.702989 2918.939141 2916.935872 2915.232137 2913.325399 2910.559163 2908.07723 2906.227797 2904.084554 2901.02813 2897.707547 2893.800374 2890.336494 2886.868883 2883.638997 2880.096924 2876.54366 2874.250936 2872.055854 2868.910577 2865.149129 2862.112305 2860.431396 2857.864502 2854.482544 2851.825345 2848.54362 2844.875583 2841.620646 2838.437459 2834.672797 2830.769057 2826.580322 2821.813165 2816.768812 2812.107503 2807.971842 2804.200073 2800.882202 2797.285943 2794.060642 2790.437337 2786.638102 2783.739475 2780.944987 2777.242038 2774.968479 2772.507853 2769.531074 2765.782973 2761.583333 2757.33964 2752.829142 2748.548381 2744.741401 2741.006185 2736.18042 2730.899794 2726.066691 2721.783813 2717.061198 2712.421373 2707.678182 2702.678358 2697.216119 2691.119873 2684.769613 2678.102336 2671.514526 2665.043511 2658.539334 2652.065063 2645.783569 2639.841119 2634.037191 2627.815918 2621.49349 2614.983154 2608.0279 2600.995904 2594.021525 2587.462701 2581.354574 2575.065348 2568.421088 2561.873508 2555.347209 2549.104546 2543.250054 2537.157715 2530.756619 2524.190728 2517.763509 2511.452799 2505.245524 2499.104858 2492.989733 2486.820841 2480.642863 2474.690809 2468.984701 2463.637939 2458.658596 2453.845703 2448.660197 2443.143921 2437.625054 2432.421468 2427.672472 2423.492445 2419.330526 2414.842584 2410.210083 2405.36971 2400.267958 2395.062134 2390.009847 2385.17726 2380.300279 2375.446167 2370.485243 2365.677504 2360.955037 2356.31448 2351.741184 2347.304321 2342.911363 2338.573798 2334.373779 2330.110433 2326.022434 2322.037964 2317.783949 2313.347711 2308.764852 2303.783827 2298.470649 2292.90568 2287.221978 2281.256809 2275.336548 2269.662638 2263.899021 2258.03536 2252.205892 2246.507311 2241.353027 2236.835775 2232.4544 2227.543945 2222.599664 2217.564399 2212.594482 2207.613227 2202.623467
3014.445841 3013.890286 3013.475667 3013.539144 3014.386312 3015.383219 3016.244846 3016.877102 3017.22583 3018.440972 3019.169935 3019.265015 3019.752536 3020.50883 3021.459229 3021.30344 3021.585083 3021.990519 3021.968709 3022.344889 3023.053792 3024.415148 3024.359266 3024.209961 3024.361016 3024.760593 3025.08252 3025.261651 3025.552856 3025.049642 3024.715535 3023.848836 3022.80245 3022.044176 3021.424262 3021.240316 3020.802219 3020.088921 3018.223674 3017.027561 3015.485474 3014.138346 3013.491482 3013.102892 3012.202677 3010.981133 3009.967814 3008.438599 3007.407539 3006.867513 3005.930705 3004.129801 3001.992215 2999.697306 2998.015937 2998.132921 2997.187744 2996.610148 2996.51039 2995.537191 2993.433689 2991.979831 2990.762817 2989.18689 2987.501912 2985.236165 2982.081651 2979.975057 2978.081665 2975.618734 2972.778904 2969.760742 2966.965617 2963.756795 2960.656453 2957.24448 2953.121148 2948.981689 2946.182115 2943.796183 2942.268758 2940.22796 2938.46167 2937.714518 2935.891344 2934.009427 2932.384196 2930.905341 2930.377794 2930.173503 2929.208089 2928.490316 2926.366536 2924.098402 2922.938802 2921.465535 2919.891385 2918.382799 2916.619019 2914.759847 2912.506836 2910.32784 2908.337511 2906.710585 2904.40153 2901.337185 2897.787177 2894.204671 2890.698649 2887.186347 2883.722982 2879.984958 2876.386054 2872.842448 2869.7618 2866.707872 2863.005819 2859.29008 2856.81897 2854.652669 2851.086778 2847.765652 2844.92216 2841.258599 2837.955512 2835.359619 2831.953152 2827.6065 2823.467896 2818.904785 2813.672377 2810.235189 2806.828166 2802.178168 2797.921631 2793.998494 2790.780314 2787.496826 2783.763753 2780.381049 2777.79248 2774.30211 2771.115465 2768.797689 2766.184774 2762.827162 2759.167074 2754.852973 2750.173001 2745.901326 2742.204346 2738.644368 2733.715332 2728.406982 2723.259006 2718.929972 2714.569539 2710.355943 2705.531331 2700.610555 2695.272217 2689.223307 2682.902303 2676.563395 2670.588175 2664.470662 2658.165934 2651.604451 2645.221965 2639.285414 2633.498169 2627.669095 2621.634413 2615.3632 2608.47172 2601.328369 2593.911987 2586.927477 2580.370741 2573.849202 2567.131049 2560.661051 2554.108317 2547.732354 2541.753418 2535.69283 2529.302138 2522.909248 2516.679159 2510.565131 2504.363756 2498.071899 2491.889608 2485.727159 2479.374064 2473.275418 2467.438694 2461.794027 2456.578518 2451.758843 2446.643555 2441.323513 2435.902507 2430.409993 2425.324354 2420.842407 2416.680176 2412.456014 2408.086168 2403.576009 2398.783108 2393.724243 2388.609497 2383.656874 2378.644667 2373.656006 2368.761787 2363.997043 2359.275838 2354.604574 2349.903646 2345.228597 2340.589993 2335.964952 2331.527507 2327.210381 2323.156426 2319.162842 2314.991401 2310.940769 2306.478841 2301.481649 2296.253852 2290.959473 2285.420437 2279.276774 2273.254679 2267.484646 2261.696954 2256.173096 2250.427938 2244.572225 2239.035482 2233.976807 2229.329793 2224.431274 2219.597399 2214.719876 2209.885742 2205.148153 2200.565837
3012.838298 3012.509928 3011.772949 3011.775472 3012.02124 3012.824951 3014.15389 3015.102173 3016.088501 3017.266439 3017.535604 3017.514404 3018.328125 3019.518107 3020.308472 3020.387492 3020.815755 3021.250977 3021.279053 3020.91569 3021.067017 3022.07373 3023.113566 3023.178955 3023.164795 3023.235596 3023.641479 3023.91272 3024.028483 3023.620972 3023.314616 3022.64974 3021.730469 3020.960571 3020.715617 3019.726929 3019.068156 3018.605713 3016.235474 3014.422404 3012.929077 3012.092529 3011.915812 3011.407593 3010.043091 3009.208984 3008.129883 3006.407593 3005.274862 3004.465739 3003.451538 3001.741007 2999.880249 2998.041504 2995.922729 2995.641968 2994.688965 2994.110636 2994.114909 2992.960938 2991.251424 2989.790649 2988.015991 2986.774333 2985.191895 2982.58252 2979.855876 2978.556641 2976.410034 2973.384562 2971.154744 2968.316528 2965.385213 2962.0118 2958.816895 2955.142253 2951.192261 2947.83606 2945.364421 2943.034505 2941.132568 2939.107218 2937.087972 2935.823486 2934.263916 2932.654826 2930.761963 2929.468506 2928.456746 2927.708496 2927.860311 2926.873576 2925.080078 2923.290812 2921.872559 2920.518066 2919.337769 2917.762044 2915.698486 2914.049194 2911.952433 2909.982056 2907.785238 2906.179403 2904.130493 2900.794393 2896.756104 2893.587524 2890.647827 2887.630249 2883.780884 2879.964396 2876.70105 2872.829468 2868.979126 2864.695882 2860.911987 2857.616048 2853.692708 2850.489502 2847.882446 2844.107422 2840.731567 2837.237874 2834.442057 2831.615967 2828.213135 2824.361613 2820.199951 2816.297689 2811.159342 2806.927979 2804.293498 2800.512573 2795.784546 2791.055176 2787.461019 2784.24646 2780.82723 2777.880452 2774.604492 2771.211589 2767.547241 2764.933472 2762.909098 2759.940755 2755.422485 2751.379517 2747.6462 2743.00647 2738.750366 2735.172892 2730.983521 2726.411499 2721.105713 2716.270508 2712.011312 2708.467204 2704.246094 2699.057088 2693.185506 2687.273071 2681.421712 2675.067546 2669.119507 2663.168701 2657.056234 2650.568604 2644.250773 2637.903117 2632.19104 2626.562785 2620.590291 2614.746948 2608.183472 2601.210205 2593.861938 2586.66512 2579.827555 2573.045044 2566.330282 2559.716105 2553.275024 2546.926595 2540.55839 2534.198975 2527.821167 2521.730265 2515.787964 2509.781413 2503.359701 2497.028931 2490.776123 2484.474447 2478.127441 2471.919922 2466.090861 2460.44397 2454.915812 2449.757528 2444.623901 2439.350057 2434.024943 2428.631958 2423.267904 2418.245321 2413.708008 2409.400146 2405.138468 2401.023071 2396.734009 2391.924845 2386.939453 2381.903442 2376.891032 2371.890503 2366.778483 2361.994344 2357.293945 2352.660197 2348.207682 2343.714966 2339.038086 2334.21814 2329.51001 2324.985677 2320.802327 2316.635498 2312.305583 2308.155599 2303.830566 2298.959147 2293.775024 2288.400513 2283.017904 2277.116414 2271.233521 2265.517415 2259.803101 2254.239014 2248.68807 2243.059001 2237.523926 2232.113281 2226.886637 2221.829468 2216.751831 2211.745117 2207.074463 2202.769979 2198.658244
3011.425022 3011.387248 3010.605428 3010.416829 3010.633775 3010.90564 3011.949707 3013.618612 3014.374023 3015.276855 3015.560533 3015.931152 3017.143094 3018.746419 3019.726359 3020.056071 3020.167901 3020.529704 3020.39643 3019.967014 3020.116659 3021.588637 3021.674221 3021.372803 3021.683282 3021.72309 3021.973836 3022.309014 3021.904351 3022.007406 3022.083184 3021.115438 3020.169881 3019.092828 3018.878052 3018.8479 3018.629869 3017.20124 3014.225179 3012.551351 3010.801405 3010.325521 3010.367472 3009.196818 3008.02417 3007.276706 3006.768894 3005.909342 3004.238783 3002.266805 3001.277018 2999.837362 2998.203993 2996.250977 2993.876234 2993.179009 2992.023519 2991.556586 2991.555773 2990.403158 2988.757446 2986.869086 2984.907674 2983.430976 2982.634874 2979.621338 2977.312256 2976.508965 2974.155151 2971.833645 2969.824164 2967.173625 2964.240723 2960.564033 2956.697754 2953.096286 2949.390503 2946.455566 2944.346395 2942.130819 2940.047689 2938.435533 2936.393636 2934.357788 2933.078939 2931.50057 2929.557658 2927.977024 2926.441379 2925.378174 2925.393148 2924.573378 2923.243856 2921.586765 2920.21327 2919.324585 2918.20695 2916.506917 2914.699992 2912.565091 2910.61617 2908.659261 2905.994303 2904.404609 2902.663371 2899.539429 2896.064426 2893.520182 2890.765652 2887.144775 2883.27714 2880.303969 2877.116577 2872.674845 2868.01435 2863.450751 2859.164876 2855.308309 2851.537896 2847.532227 2844.316976 2841.197198 2836.96818 2833.049303 2829.763102 2827.18103 2823.964871 2820.380683 2816.899333 2813.102607 2808.861749 2804.144531 2800.414429 2797.619629 2793.270508 2788.284248 2784.218967 2781.033325 2778.186361 2775.1639 2771.758545 2768.079197 2764.700968 2761.30721 2758.922824 2756.754517 2753.247803 2748.456 2743.8176 2739.865682 2736.019531 2731.901082 2727.775187 2723.388496 2718.661526 2714.335083 2709.840237 2706.117703 2702.045369 2696.884318 2691.212931 2685.835449 2680.396132 2674.154202 2667.800334 2661.686225 2655.374037 2649.2087 2642.849311 2636.33096 2630.392985 2624.574192 2618.851942 2612.61731 2606.035251 2599.601603 2592.83488 2586.016398 2579.591295 2573.043742 2566.522651 2560.10711 2553.38033 2546.771267 2540.112128 2533.533162 2526.970039 2520.682265 2514.613281 2508.671278 2502.360718 2496.013184 2489.660794 2483.319173 2477.05896 2470.840196 2464.765028 2458.78422 2453.016371 2447.695597 2442.472982 2437.303372 2432.025662 2426.797648 2421.580254 2416.431057 2411.409749 2406.669854 2402.32822 2398.075277 2393.858656 2389.20954 2384.385661 2379.466743 2374.574843 2369.299032 2364.114597 2359.409668 2354.74703 2350.283203 2345.926514 2341.5684 2337.154297 2332.654785 2328.060465 2323.483073 2319.029744 2314.665649 2310.175347 2305.460314 2300.898885 2296.210219 2291.224596 2285.986491 2280.651299 2274.77063 2268.960327 2263.500298 2258.357001 2253.14388 2247.835897 2242.452257 2236.807373 2231.41371 2226.216838 2221.016032 2215.594103 2210.66314 2206.112508 2201.767171 2197.752143
3009.961792 3010.237061 3009.637817 3009.416612 3009.468899 3009.379191 3010.417548 3011.924981 3012.989461 3013.759277 3013.988159 3014.453654 3015.626817 3017.330105 3018.960327 3019.656318 3019.800225 3019.663167 3019.433377 3019.193102 3019.249674 3020.605984 3020.240655 3019.842122 3020.431152 3020.584215 3020.713826 3020.694024 3020.037082 3020.412516 3020.49216 3019.683512 3018.807943 3018.031969 3017.761108 3017.728963 3017.290405 3015.587118 3013.016032 3010.713582 3009.511325 3009.339396 3008.938043 3007.858602 3006.775187 3005.908257 3005.654487 3004.976522 3002.589966 2999.959622 2998.941325 2997.728244 2996.448676 2994.61438 2992.186713 2989.916138 2988.684448 2988.886949 2988.707845 2987.57491 2985.945001 2983.839355 2981.884318 2979.976739 2979.050836 2976.476969 2974.912028 2974.359524 2971.998657 2969.734592 2968.094849 2965.850505 2962.654053 2958.06821 2955.11141 2950.787733 2946.887994 2944.506877 2942.830187 2940.50902 2938.788005 2937.440158 2935.139608 2933.316203 2932.065389 2930.0515 2928.435791 2926.812378 2925.004381 2923.655843 2923.227525 2922.318983 2920.887004 2919.260308 2917.567871 2916.75533 2915.752129 2915.09295 2913.408366 2910.758504 2908.977837 2906.427409 2903.915582 2902.671482 2900.928507 2898.600694 2895.975369 2893.63265 2890.447645 2886.7913 2883.679321 2881.249512 2877.493679 2872.62797 2867.811496 2862.683729 2857.741007 2852.878364 2848.660834 2845.241984 2841.336412 2837.375773 2833.589844 2829.488851 2825.473958 2822.075602 2819.342082 2816.596653 2812.804484 2809.285794 2805.36259 2800.907511 2796.170193 2793.402588 2790.154338 2785.173109 2780.308133 2776.527425 2774.05877 2771.675551 2768.38798 2764.679294 2761.672092 2758.243001 2755.327148 2753.741998 2750.447713 2746.531616 2741.303752 2736.95284 2732.999403 2729.186062 2725.478638 2720.85711 2715.734633 2711.496501 2707.541911 2703.587714 2699.409505 2694.726969 2689.251166 2683.814372 2678.387573 2672.385647 2665.888631 2659.573663 2653.195285 2647.118856 2640.96993 2634.652995 2628.554159 2622.694038 2616.795464 2610.583374 2604.009535 2597.49688 2591.089803 2584.847426 2578.548326 2572.009806 2565.779433 2559.710571 2553.251383 2546.379422 2539.564168 2532.773193 2526.099908 2519.664971 2513.414347 2507.402222 2501.164971 2494.808146 2488.44789 2482.362617 2476.517863 2470.239217 2463.96582 2457.916789 2452.097968 2446.540649 2440.84668 2435.198364 2429.699368 2424.60848 2419.753269 2414.855469 2409.660034 2404.442749 2399.452447 2394.990519 2390.770806 2386.425713 2381.901652 2377.082574 2372.117025 2366.866007 2361.622599 2356.726495 2352.003621 2347.495958 2343.01964 2338.678019 2334.533705 2330.400675 2326.115356 2321.821628 2317.480062 2313.073242 2308.435845 2303.320557 2298.457845 2293.753893 2288.911431 2283.628988 2278.22305 2272.523044 2266.960327 2261.784939 2257.070177 2252.311523 2247.221517 2241.958049 2236.569173 2231.230984 2226.178494 2220.890544 2215.376723 2210.555827 2206.121338 2201.67867 2197.590942
3008.569906 3008.886475 3008.799438 3008.659912 3008.1698 3008.326538 3009.223429 3010.982666 3011.904541 3012.637573 3012.298421 3012.927979 3014.054362 3015.368449 3017.772461 3018.800618 3018.684855 3018.875977 3018.830973 3018.253581 3018.165039 3019.036418 3019.231527 3018.710449 3018.882446 3019.075724 3019.145996 3019.001343 3018.75293 3018.880981 3018.889771 3018.354899 3017.62146 3016.861328 3016.248739 3016.260986 3015.436727 3014.19161 3012.364502 3009.913005 3008.564738 3007.829956 3007.202555 3006.42924 3005.639526 3005.016276 3004.299723 3003.034058 3000.652059 2998.212891 2997.203979 2995.240072 2993.88326 2992.609985 2990.124756 2986.611572 2985.440063 2985.926392 2986.020589 2984.452515 2982.767049 2980.55778 2978.471436 2976.307983 2974.853719 2973.107056 2972.784465 2971.52124 2969.893433 2967.708008 2965.358765 2963.392944 2959.674479 2955.92041 2952.778076 2948.904744 2945.415568 2943.187988 2941.350464 2938.956258 2937.249512 2935.651367 2933.523885 2932.265991 2930.596151 2928.556152 2927.515503 2926.152303 2924.295614 2922.460571 2921.110921 2919.668457 2918.090576 2916.721558 2915.237386 2914.166504 2913.279989 2913.267578 2911.747437 2909.457113 2906.902995 2904.203491 2903.278931 2902.240519 2900.868408 2898.942871 2896.438599 2893.015991 2889.681844 2886.349325 2883.757568 2881.18217 2877.547119 2873.364502 2868.482544 2863.112467 2857.391968 2851.908895 2846.199666 2841.593994 2838.019979 2833.318237 2829.30249 2826.107625 2822.269328 2817.692993 2813.674154 2810.871623 2808.224976 2804.979329 2801.10848 2797.155518 2792.215088 2788.435791 2785.669067 2781.930786 2776.609131 2771.379028 2768.498332 2766.855876 2764.455933 2760.741781 2757.561849 2755.591553 2752.630412 2750.188802 2747.585571 2744.051636 2740.233276 2735.48999 2731.120076 2727.039266 2722.396973 2717.663289 2713.404256 2709.234497 2704.736206 2700.415324 2696.730469 2692.305623 2687.098104 2681.662476 2675.497111 2669.332153 2663.06604 2656.774007 2650.244873 2643.847534 2637.756917 2631.66276 2625.891479 2620.377441 2614.445841 2608.266479 2601.823527 2595.510254 2589.401001 2583.309611 2576.769694 2570.097534 2563.695638 2557.583171 2551.31311 2544.914917 2538.684245 2532.151001 2525.425496 2518.808879 2512.195435 2505.789225 2499.250936 2492.89502 2486.663086 2480.624878 2474.998047 2468.839233 2462.625854 2456.645996 2450.81193 2445.226196 2439.598022 2433.759399 2428.026774 2422.530029 2417.488078 2412.488892 2407.459961 2402.341756 2396.974121 2391.942993 2387.573486 2383.456055 2379.151978 2374.488607 2369.470296 2364.374512 2359.309896 2354.279989 2349.280518 2344.662842 2340.043701 2335.486572 2331.338745 2327.592 2323.548096 2319.446248 2315.168905 2311.193481 2307.034424 2302.152832 2297.005005 2291.793579 2286.941895 2281.866943 2276.412842 2270.798625 2265.473022 2260.536255 2255.97876 2251.268921 2246.344564 2241.1639 2236.215942 2231.42216 2226.380452 2221.465454 2216.500732 2211.521484 2207.092896 2202.62089 2198.502441
3007.837579 3007.813707 3007.339681 3007.406494 3007.503743 3007.928385 3008.458198 3009.449883 3010.520508 3010.993476 3010.844889 3011.555745 3012.517483 3013.545519 3015.660767 3017.01161 3017.734945 3017.836833 3017.568305 3017.239733 3017.082642 3017.712769 3018.192505 3017.810506 3017.33492 3017.52101 3017.525838 3017.281603 3017.129286 3017.085327 3016.637302 3016.07232 3015.632121 3015.282973 3014.579915 3014.301107 3013.688734 3013.112088 3011.763468 3009.955594 3008.746419 3007.318034 3006.007514 3004.553657 3003.861165 3003.452569 3002.288425 3000.942627 2998.584852 2996.390096 2994.517619 2992.401964 2990.516927 2989.498779 2987.051934 2984.456923 2983.487915 2983.319472 2982.352268 2980.98112 2979.718777 2978.005113 2975.156169 2972.5 2971.244032 2970.046794 2969.692844 2968.580919 2966.476115 2964.436646 2962.778117 2960.998739 2957.934787 2954.135417 2950.63619 2947.640205 2944.791016 2942.687826 2940.561713 2938.19789 2936.200155 2934.40252 2932.719238 2931.30131 2929.063775 2926.91866 2926.175822 2925.128635 2923.034519 2920.812703 2919.536743 2918.446452 2916.958618 2915.342733 2913.795898 2912.125 2910.44675 2909.724772 2909.510946 2907.889689 2905.771023 2904.31193 2903.22758 2902.136 2900.760295 2898.973212 2896.28597 2892.435018 2889.323364 2886.163032 2883.74349 2881.154405 2877.198242 2872.739014 2868.05013 2863.294203 2858.082926 2852.24882 2845.543837 2838.802205 2833.861654 2829.884535 2825.661702 2821.289117 2817.672784 2813.672811 2809.606893 2805.965807 2803.587565 2800.669691 2797.435777 2793.608317 2789.377116 2784.512953 2780.700806 2778.084757 2773.371758 2767.420695 2763.053806 2760.416273 2758.753337 2756.369059 2753.515598 2752.006226 2750.256049 2746.684068 2744.090658 2741.500556 2737.886325 2733.895996 2729.970662 2725.364204 2720.359985 2714.919963 2710.224731 2706.236287 2702.488539 2698.489176 2694.038493 2689.767429 2685.157918 2679.905965 2673.76865 2667.461412 2661.028076 2654.512519 2647.866604 2641.402222 2634.823568 2628.413656 2622.392863 2616.588582 2611.076294 2605.272786 2599.242676 2593.152588 2587.084513 2580.999457 2574.430583 2567.693197 2561.157891 2555.05424 2548.873942 2542.73622 2536.765964 2530.539673 2524.308553 2518.011285 2511.355184 2504.731893 2498.027724 2491.370361 2484.836982 2478.543443 2472.572673 2466.669393 2460.701579 2454.708659 2448.76336 2443.173353 2437.708944 2432.24722 2426.552097 2420.76766 2415.14468 2409.822211 2404.699341 2399.817261 2394.76138 2389.776489 2385.115573 2380.785604 2376.317139 2371.621351 2366.720907 2361.62618 2356.658095 2351.707465 2346.851807 2342.067817 2337.303209 2332.723348 2328.508653 2324.508002 2320.526001 2316.617255 2312.50925 2308.563151 2304.60532 2300.350627 2295.753621 2290.879747 2285.99117 2280.838338 2275.290677 2269.680122 2264.315715 2259.406006 2254.84885 2250.424032 2245.781915 2240.897881 2236.081014 2231.386068 2226.803277 2222.098348 2217.337429 2212.581028 2208.093099 2203.761759 2199.624254
3007.158027 3006.38756 3005.894816 3006.452677 3006.888197 3007.189697 3007.505046 3008.268663 3008.852458 3008.962267 3009.448649 3010.255615 3011.019192 3012.582845 3014.820882 3015.952664 3016.2771 3016.32784 3016.028252 3015.77143 3015.812012 3015.75708 3016.417616 3016.514689 3016.058526 3015.842122 3015.680583 3015.441488 3014.999864 3014.875692 3014.266859 3013.594591 3013.667887 3013.672892 3012.396715 3011.889567 3011.804064 3011.923489 3011.027344 3009.425279 3008.187012 3006.726644 3005.057495 3002.814182 3001.553996 3000.821669 2999.231906 2998.106649 2996.889811 2994.655246 2992.676473 2990.938422 2988.694838 2986.601318 2984.056925 2982.361369 2981.1462 2979.722209 2979.212769 2978.556396 2977.576714 2975.592868 2972.66276 2969.825629 2968.2044 2967.434245 2966.859022 2965.891005 2963.8243 2962.150906 2960.561076 2959.053833 2956.412001 2952.824693 2950.414225 2946.999797 2943.47427 2941.363281 2939.585069 2937.111993 2935.016927 2933.507907 2932.465427 2930.709391 2928.195462 2925.810072 2924.709595 2923.495131 2921.284302 2919.333008 2918.263373 2917.101671 2915.613363 2913.988213 2912.381836 2910.907227 2908.413411 2907.263645 2907.585653 2906.710571 2905.637845 2903.852824 2902.336887 2901.360596 2900.093302 2898.224175 2895.568739 2892.106323 2888.706665 2885.085788 2882.435994 2880.01374 2875.911974 2871.630859 2867.010607 2862.307509 2857.288045 2851.228299 2844.788276 2837.790487 2831.861043 2826.322849 2821.576335 2817.026666 2812.800863 2809.677856 2806.025743 2802.160997 2798.829671 2795.990411 2792.912137 2789.937826 2786.388156 2782.260959 2776.987549 2773.267551 2770.061781 2764.819458 2759.305718 2754.806546 2752.622762 2751.360135 2749.468859 2747.365316 2746.063246 2743.406928 2739.907471 2737.954074 2735.229329 2731.188843 2727.921929 2724.465847 2719.471191 2713.896118 2708.674628 2703.953166 2699.853665 2696.081828 2691.57369 2687.066786 2682.392714 2677.460002 2671.99589 2665.950426 2659.48116 2652.915541 2646.466159 2639.956868 2633.291138 2626.641154 2620.186035 2613.58237 2607.353461 2601.398112 2595.540378 2589.599013 2583.708211 2577.652778 2571.493517 2565.130819 2558.719984 2552.594089 2546.569661 2540.706028 2534.509264 2528.140381 2521.915568 2516.027981 2510.0118 2503.817871 2497.336005 2490.510457 2483.629272 2477.054294 2470.715413 2464.708889 2458.746229 2452.835164 2446.914374 2441.295478 2435.714152 2429.989353 2424.194946 2418.459025 2412.880995 2407.517904 2402.282633 2397.313775 2392.450222 2387.743652 2383.244642 2378.621297 2373.8302 2369.148926 2364.261027 2359.32902 2354.395521 2349.258328 2344.354533 2339.633002 2334.720622 2329.973958 2325.74193 2321.678073 2317.501139 2313.474989 2309.509128 2305.656331 2301.717733 2297.861125 2293.737467 2289.329007 2284.690335 2279.817546 2274.35635 2268.785536 2263.452148 2258.4485 2253.817695 2249.383301 2244.924506 2240.318251 2235.832031 2231.297716 2226.861342 2222.317546 2217.792765 2213.368056 2209.070964 2204.917657 2200.766317
3005.730062 3005.198446 3005.094482 3005.668009 3005.933919 3005.989502 3006.570557 3007.391276 3007.692505 3007.973022 3008.265584 3009.054077 3010.093384 3012.059326 3013.744507 3014.773275 3015.249959 3014.936523 3014.407186 3014.294678 3014.012573 3013.541219 3013.962769 3014.626465 3014.530436 3013.951416 3013.715942 3013.375244 3012.753703 3012.512451 3011.715617 3011.934733 3012.706055 3012.194784 3010.789754 3010.227539 3010.318726 3009.856079 3008.99353 3008.195597 3007.193807 3005.734497 3004.423218 3002.159831 3000.283936 2998.43103 2996.142619 2995.292969 2994.757935 2992.778768 2990.637939 2988.990926 2987.431681 2984.829468 2982.519775 2980.915568 2978.970947 2977.229289 2976.820964 2976.166016 2974.954997 2972.975016 2970.62207 2968.067505 2966.760742 2965.630493 2964.575195 2963.120117 2961.810059 2960.332845 2958.598633 2957.08606 2954.691081 2951.79598 2949.692017 2946.483968 2942.388916 2939.545898 2938.044596 2936.163696 2933.949951 2932.765951 2931.606079 2929.468018 2927.304443 2925.17452 2923.668457 2922.317261 2920.373901 2919.117432 2917.51888 2916.232259 2914.715942 2912.849691 2911.150472 2909.451538 2907.858398 2906.463542 2906.365479 2905.568278 2903.987467 2902.25293 2900.684611 2899.454549 2898.725586 2897.10791 2895.159465 2892.421509 2888.254517 2884.371257 2880.760986 2877.341105 2873.675944 2869.659058 2865.278971 2860.587402 2854.567017 2848.197673 2842.315104 2836.114502 2829.911825 2823.368449 2817.391968 2812.896362 2808.218831 2805.522949 2802.515503 2798.683105 2794.804565 2791.515259 2788.737752 2785.946045 2782.651449 2778.939087 2774.543091 2769.070597 2765.512248 2762.174561 2756.650594 2751.392415 2747.278931 2745.303589 2744.361816 2742.536987 2740.804321 2739.930908 2736.407471 2733.016927 2731.250366 2728.510498 2724.885417 2722.093669 2718.360474 2713.281779 2708.323486 2702.922485 2698.157186 2693.554728 2688.706543 2684.28658 2680.140869 2675.221436 2669.948812 2664.099609 2657.69458 2651.135661 2644.734904 2638.371582 2632.100545 2625.764689 2619.012573 2611.934774 2605.16984 2598.616577 2592.300212 2586.08256 2579.945923 2573.803955 2567.850586 2561.866089 2555.713338 2549.561605 2543.632568 2537.928955 2531.963175 2525.647949 2519.383016 2513.518758 2507.779053 2502.052327 2496.16569 2489.811035 2483.230062 2476.641724 2470.027954 2463.521159 2457.051229 2450.913452 2445.194621 2439.766357 2434.253052 2428.295085 2422.05424 2416.213501 2410.650838 2405.471598 2400.219482 2395.016235 2390.115316 2385.439453 2381.057414 2376.490763 2371.731445 2367.109416 2362.226807 2357.005493 2351.959513 2346.881999 2341.819092 2337.067464 2332.300822 2327.466431 2322.993123 2318.910685 2314.683594 2310.457357 2306.267293 2302.203491 2298.336385 2294.749756 2290.901001 2286.941366 2282.678874 2277.854492 2272.569661 2267.503743 2262.496094 2257.636882 2252.934326 2248.198486 2243.894613 2239.46224 2235.16748 2230.783407 2226.492432 2222.289062 2217.950887 2213.721761 2209.557983 2205.690552 2201.657959
3004.357842 3004.247301 3004.16451 3004.849786 3005.235596 3005.153931 3005.724691 3006.283841 3006.689046 3007.133993 3007.650079 3008.213786 3009.202962 3010.772922 3011.88798 3012.463637 3013.006104 3013.106689 3013.076023 3013.249566 3012.515666 3011.770331 3012.153022 3013.108358 3012.724013 3012.208401 3012.084188 3011.795681 3011.017348 3010.499186 3010.02931 3010.26884 3011.27002 3011.043932 3009.976969 3009.174845 3008.864556 3007.708889 3006.715983 3006.346476 3005.725952 3004.35734 3003.34653 3001.48272 2999.167236 2996.918647 2994.937785 2993.463542 2992.061863 2990.595934 2988.873372 2987.507039 2985.660387 2983.37797 2981.758884 2980.259182 2978.644653 2976.599745 2974.806193 2973.577271 2972.038479 2970.779663 2968.585042 2966.381605 2964.4788 2962.833496 2961.695624 2960.361192 2960.256877 2958.924547 2956.971015 2955.114624 2952.438151 2949.285143 2946.94161 2944.153008 2941.276015 2938.747843 2936.934502 2934.850898 2932.725505 2931.357286 2929.951714 2927.907186 2925.72427 2924.057875 2922.898641 2921.409749 2919.867527 2918.746623 2917.123779 2915.531779 2913.713664 2911.641859 2910.0169 2908.637126 2908.051839 2907.153741 2906.250448 2904.780762 2903.182183 2901.679036 2899.864176 2897.787489 2896.492961 2895.298001 2893.855469 2891.634318 2888.361911 2884.708008 2879.798258 2876.233005 2872.976644 2868.878662 2864.357218 2859.040717 2852.696655 2846.231974 2840.038534 2833.632039 2827.250746 2820.780816 2814.588298 2809.037462 2804.53578 2801.445272 2799.057237 2794.866021 2790.938802 2787.57784 2784.787245 2781.745158 2778.692939 2774.811578 2771.453125 2767.215712 2761.946479 2758.14681 2754.162503 2748.860175 2743.735514 2739.819146 2738.675483 2737.639648 2735.756266 2734.541531 2733.108114 2729.377509 2726.529473 2724.813639 2721.876817 2718.896539 2716.278117 2711.924004 2707.044854 2702.276123 2696.909017 2691.626831 2686.860352 2681.766561 2677.169529 2672.672892 2667.723362 2662.410455 2656.15568 2649.993001 2643.456814 2636.754801 2630.188463 2623.468153 2616.877726 2610.123427 2603.181017 2596.277181 2589.666056 2583.394423 2577.136353 2570.819444 2564.71559 2558.663656 2552.582655 2546.333469 2540.225667 2534.219198 2528.504137 2522.877563 2516.966214 2511.083984 2505.138346 2499.615831 2493.904161 2487.951823 2481.839979 2475.725749 2469.355184 2462.905613 2456.495633 2450.505981 2444.70969 2439.108222 2433.56779 2427.64761 2421.496826 2415.650879 2409.957425 2404.344021 2398.643351 2393.001424 2387.747179 2382.854004 2378.356934 2373.913845 2369.341309 2364.943373 2360.22054 2355.3066 2350.321058 2345.19519 2339.981689 2334.941908 2330.131931 2325.394328 2320.70402 2316.133436 2311.679728 2307.465915 2303.187826 2298.873128 2295.010769 2291.528578 2288.044352 2284.337267 2280.526638 2275.80363 2270.567057 2265.416504 2260.661011 2255.8927 2251.045763 2246.607463 2242.649563 2238.603407 2234.440023 2230.07864 2225.761081 2221.595825 2217.587185 2213.598674 2209.712687 2205.964532 2202.120877
3002.775323 3002.861789 3003.226685 3003.862535 3004.412462 3004.551107 3004.880385 3005.404541 3005.565145 3005.836046 3006.484646 3006.709351 3007.535373 3008.703722 3009.403687 3009.498739 3010.452379 3011.175049 3011.722399 3011.81212 3011.132528 3010.524794 3010.964789 3011.475952 3011.111098 3010.40465 3010.175334 3009.709568 3009.020616 3008.631795 3008.602471 3008.399699 3008.534831 3008.564969 3008.400241 3007.650675 3007.093574 3006.269599 3005.44519 3004.742906 3004.173923 3003.375122 3002.082696 3000.365506 2998.21285 2995.943278 2993.605767 2991.434489 2989.992391 2988.617269 2987.158691 2985.794651 2984.093397 2982.418335 2981.123603 2979.714979 2977.827474 2975.647285 2973.349243 2971.436727 2970.26732 2969.273397 2967.304972 2965.158488 2962.349311 2960.638672 2959.372708 2958.218804 2957.320028 2956.454753 2955.06878 2952.717448 2949.33115 2946.507189 2944.652832 2942.302138 2940.381632 2938.041951 2935.814629 2933.538357 2932.028035 2930.292562 2928.051147 2925.999105 2924.117879 2922.434937 2921.885091 2920.482286 2919.075426 2917.653239 2916.334405 2914.424954 2912.607137 2911.016561 2909.371596 2907.991496 2907.858941 2907.093357 2905.94987 2904.30112 2902.722751 2901.457642 2899.667413 2897.562514 2895.829712 2894.266208 2892.49117 2890.080811 2886.807088 2882.842244 2879.11735 2876.059692 2872.510023 2867.993815 2862.892592 2857.240668 2851.10966 2845.058865 2838.722399 2831.98348 2825.412638 2818.877062 2812.393473 2805.888713 2801.033027 2798.156453 2795.077148 2790.984131 2786.841309 2784.085815 2781.141344 2778.132324 2774.91276 2770.98603 2767.220337 2764.111816 2759.431234 2754.515991 2750.379489 2746.391724 2741.41158 2736.202271 2733.500583 2732.026367 2731.009372 2729.813829 2729.395793 2727.176039 2723.163791 2720.628133 2718.456462 2715.715034 2713.430583 2709.86735 2704.669596 2700.225342 2695.759942 2690.238634 2684.580485 2679.290134 2674.425496 2669.454671 2664.295709 2659.117147 2653.405273 2647.679769 2641.337606 2634.732503 2628.087104 2621.312134 2615.004354 2608.497789 2601.527235 2594.616252 2587.770331 2581.44614 2574.978475 2568.364543 2562.070055 2556.007161 2550.072483 2544.000095 2537.826172 2531.58431 2525.28677 2519.068766 2513.247409 2507.588772 2502.151286 2496.78262 2491.200751 2485.587606 2479.756782 2473.931315 2468.028971 2461.96932 2455.798258 2449.860352 2444.14818 2438.647895 2432.994954 2426.937283 2420.879205 2415.078695 2409.346653 2403.652818 2397.857544 2391.814345 2385.810723 2380.428548 2375.582262 2371.088921 2366.604655 2362.35498 2358.079739 2353.677694 2349.001085 2343.936184 2338.612467 2333.504462 2328.481608 2323.692383 2318.917874 2314.16276 2309.433675 2304.934896 2300.520766 2296.085856 2292.005914 2288.472046 2285.070353 2281.651449 2278.110731 2274.11967 2269.231255 2264.010986 2259.012655 2254.15918 2249.35829 2245.104329 2241.098443 2237.22366 2233.475138 2229.292616 2225.241713 2221.43335 2217.627903 2213.688761 2209.771973 2205.913194 2202.094428
3000.750081 3000.950073 3002.071533 3002.732056 3003.817057 3003.921509 3004.152222 3004.443156 3004.663452 3004.306885 3004.619385 3004.895508 3005.135417 3005.490438 3006.470093 3007.192139 3008.496257 3009.206543 3009.827922 3009.722127 3009.232056 3009.052083 3009.178833 3009.46106 3009.432739 3008.887695 3008.56543 3007.895915 3007.443441 3007.279541 3007.324219 3006.836548 3006.174438 3006.635661 3007.173177 3006.262085 3005.596273 3004.92041 3004.024048 3002.678589 3001.862752 3001.36853 3000.414714 2998.67216 2996.759033 2994.696086 2992.045125 2989.968506 2988.503866 2986.98877 2985.587524 2984.298136 2982.950684 2981.593994 2980.026367 2978.332235 2976.245972 2974.314209 2971.599162 2969.924072 2968.041056 2967.033569 2965.730469 2963.503215 2961.00647 2959.335449 2957.745605 2955.941406 2954.343506 2953.424683 2952.13623 2949.410034 2946.588175 2944.409831 2942.440063 2940.738932 2938.62793 2936.758423 2934.514771 2932.743123 2931.238525 2929.689453 2927.095256 2924.781006 2922.758219 2921.143229 2920.576416 2919.482829 2917.875366 2916.256958 2914.988322 2913.550944 2911.769531 2910.324585 2908.503703 2907.273926 2906.870728 2906.279907 2905.376953 2903.974243 2902.592611 2901.254517 2899.533488 2897.88269 2896.286987 2894.451579 2892.022583 2888.689453 2885.154744 2881.666382 2878.688965 2875.533895 2871.762939 2866.864014 2861.360514 2855.506226 2849.351562 2843.227254 2836.953044 2830.270508 2823.482178 2817.067179 2810.26001 2803.522013 2797.685425 2794.368408 2790.171427 2786.666382 2782.87793 2779.657511 2777.505819 2774.72998 2771.50765 2767.416056 2763.359985 2760.003052 2756.471354 2751.771973 2746.625244 2742.74707 2739.342529 2735.029867 2730.520589 2727.661499 2726.714315 2725.689331 2724.828491 2723.671875 2720.929362 2717.491455 2714.880412 2712.67806 2710.473511 2707.349447 2701.844279 2696.887451 2692.955851 2688.205892 2682.469971 2677.125366 2671.766073 2666.505981 2661.381917 2656.220174 2650.433472 2644.341431 2638.082275 2631.544922 2625.103475 2618.651042 2612.366089 2606.012451 2599.390747 2592.675049 2585.899211 2579.471598 2572.963013 2566.412923 2560.050415 2553.704956 2547.648926 2541.811523 2536.090576 2530.180054 2523.421631 2516.530518 2509.744303 2503.396037 2497.723022 2492.463745 2487.344523 2482.174927 2476.894328 2471.549276 2466.147583 2460.583944 2454.65153 2448.615479 2442.960286 2437.639445 2432.028564 2425.751668 2419.484172 2413.558594 2407.852783 2402.218628 2396.477051 2390.443441 2384.467692 2378.708008 2373.441732 2368.47347 2363.863037 2359.56604 2355.667725 2351.596558 2347.126912 2341.997111 2336.91748 2332.108439 2327.063477 2322.110962 2317.461873 2312.870199 2308.056519 2303.429606 2298.798869 2294.297974 2289.783488 2285.851807 2282.312012 2278.966919 2275.781901 2272.327515 2268.584717 2263.646362 2258.486572 2253.640544 2249.093018 2244.779541 2240.670695 2236.57076 2232.715576 2229.008993 2225.351562 2221.870483 2218.191935 2214.47876 2210.514038 2206.297363 2202.301595
2998.853923 2999.126953 3000.734131 3002.288981 3002.818292 3002.747152 3003.255507 3003.701063 3003.222371 3002.664293 3002.658732 3002.911947 3002.695285 3002.170993 3003.58488 3005.190538 3006.344374 3007.194621 3007.405409 3007.682576 3007.36792 3007.372287 3006.832126 3006.918864 3007.250393 3007.226251 3006.880859 3006.474948 3005.914171 3005.3868 3005.174398 3004.493585 3004.247233 3004.312676 3004.304877 3004.072021 3003.709093 3002.864366 3001.896159 3000.388089 2999.139445 2998.261434 2998.203315 2997.513007 2995.770345 2993.891466 2991.323649 2988.838704 2987.090101 2985.708469 2983.92098 2982.499959 2981.299466 2980.072469 2978.63897 2976.808729 2974.445028 2972.426649 2969.817803 2968.104045 2966.411648 2964.726332 2963.534058 2961.244846 2959.673462 2957.535116 2955.749905 2954.114977 2952.413493 2951.037421 2948.770372 2946.058472 2943.813775 2942.411458 2940.095011 2937.868137 2936.215373 2934.461182 2932.761556 2931.384874 2929.887899 2928.506822 2925.534071 2923.41923 2921.380615 2919.758436 2919.035522 2918.053223 2916.816176 2915.177002 2913.9359 2912.357463 2910.840902 2909.404473 2907.73862 2906.53186 2905.816284 2905.42844 2904.490641 2903.483534 2901.823513 2900.299764 2898.678779 2897.660305 2896.534505 2894.345947 2892.006809 2888.36853 2884.779609 2881.143812 2877.354167 2873.238946 2869.179226 2864.931722 2859.789863 2853.837036 2847.418416 2841.069878 2834.734294 2828.211344 2821.723728 2814.83096 2808.03597 2801.462877 2795.333659 2790.256958 2786.176242 2782.813544 2779.18925 2774.961507 2772.490058 2769.964152 2767.011678 2763.507039 2759.552043 2755.900784 2752.637099 2748.440308 2744.035834 2739.338298 2736.17627 2733.007134 2729.165378 2725.397664 2723.064914 2721.496107 2720.047038 2718.589369 2717.169623 2715.163289 2712.209079 2709.431844 2707.358358 2704.769219 2700.501912 2694.598511 2689.528456 2684.870117 2679.440348 2674.527751 2669.983412 2664.772542 2659.378038 2654.015015 2648.021322 2641.707357 2635.381741 2628.873169 2622.165609 2615.549194 2609.136678 2602.687581 2595.907254 2589.539795 2582.906535 2576.448812 2570.120728 2563.720473 2557.446804 2551.396647 2545.377767 2539.355971 2533.53772 2527.462524 2520.889784 2514.104492 2507.330444 2500.894287 2494.592529 2488.574707 2482.970866 2477.728109 2472.702474 2467.842719 2462.924154 2457.625854 2451.864678 2446.171183 2440.684855 2435.434747 2430.236532 2424.771552 2419.021294 2413.236857 2407.299059 2401.197103 2395.372152 2389.407783 2383.434679 2377.573283 2371.927829 2366.57647 2361.423299 2356.782511 2352.78498 2348.900309 2344.764852 2339.965183 2335.248983 2330.464912 2325.576335 2320.840861 2316.297472 2311.717733 2307.02653 2302.438694 2297.687853 2293.052612 2288.414971 2284.203545 2280.407837 2276.989719 2273.87401 2270.648641 2267.180379 2262.928467 2258.168579 2253.641317 2249.287747 2244.969808 2240.870945 2236.974053 2233.126831 2229.530667 2226.131483 2222.709635 2219.195394 2215.437391 2211.442301 2207.086385 2203.005032
2997.347236 2997.586561 2999.265869 3001.164456 3001.663791 3001.644206 3001.995863 3002.652534 3002.341838 3001.801839 3001.412096 3001.131673 3000.864014 3000.480306 3001.753296 3003.559869 3004.478041 3005.028442 3005.203695 3005.563734 3005.3573 3005.152384 3004.504055 3004.546834 3005.175917 3005.352037 3005.032837 3004.77969 3004.054118 3003.464355 3003.141615 3002.141385 3001.626831 3001.848633 3001.928928 3002.104777 3001.718764 3000.79442 2999.559652 2997.517076 2996.029853 2995.287638 2995.63817 2996.117364 2994.063192 2991.975437 2990.535007 2987.926676 2985.793145 2984.163642 2982.281494 2980.527357 2979.197944 2977.691366 2976.580566 2974.943671 2973.112508 2971.123711 2968.936211 2967.329183 2965.82921 2963.866523 2961.735636 2959.384454 2957.37382 2955.546997 2953.996229 2953.089857 2951.328003 2949.153497 2946.609755 2944.091349 2942.19595 2940.419895 2937.896484 2935.734646 2934.44789 2932.276611 2930.044203 2928.159709 2927.01884 2925.520928 2922.591037 2920.844523 2919.160183 2918.136285 2917.268799 2916.3581 2915.585124 2913.750122 2912.2001 2910.155694 2908.806152 2908.182251 2906.822523 2905.766602 2904.750054 2904.111084 2903.689657 2902.369954 2900.819865 2899.105062 2897.517754 2895.809313 2894.889486 2893.645766 2891.782769 2888.469889 2884.468018 2880.651082 2876.535645 2872.12226 2867.67395 2863.260335 2857.979221 2852.13029 2845.821655 2839.382555 2832.814697 2826.389079 2820.001953 2813.095825 2806.144531 2799.443305 2793.253459 2787.28418 2782.152778 2778.700494 2774.645508 2769.891656 2766.683377 2764.216512 2762.068224 2758.857232 2755.531698 2752.530952 2748.83846 2744.999512 2740.636936 2736.33945 2732.982544 2730.05485 2726.724297 2723.061849 2720.107218 2717.900594 2716.012004 2714.31897 2712.638333 2711.58313 2710.078071 2707.055067 2703.923136 2701.525662 2698.564304 2693.536702 2687.597968 2681.828925 2676.15686 2671.586561 2667.468791 2662.498006 2657.222385 2651.986518 2645.719198 2639.401842 2633.224406 2626.793376 2620.164361 2613.443848 2606.850505 2600.037706 2593.011882 2586.174438 2579.707791 2573.413371 2567.226481 2560.989122 2554.565782 2548.669556 2542.650662 2536.502862 2530.234823 2523.951023 2517.67905 2511.257853 2504.79404 2498.447944 2492.119873 2485.773031 2479.480306 2473.724813 2468.470934 2463.240017 2458.272257 2453.184421 2447.810208 2442.564128 2437.450779 2432.541857 2427.660482 2422.657674 2417.589654 2412.298014 2406.499566 2400.71106 2394.968587 2388.996162 2382.684177 2376.654053 2370.952488 2365.450575 2360.050537 2354.911024 2350.323758 2346.077474 2342.167901 2338.080105 2333.874552 2329.333835 2324.303385 2319.560506 2315.058811 2310.501316 2306.003052 2301.522488 2296.761746 2292.016886 2287.512858 2283.378947 2279.377523 2275.818997 2272.755575 2269.652629 2266.143555 2262.430108 2258.230509 2254.048964 2249.781793 2245.657064 2241.632256 2237.829156 2234.137207 2230.602634 2227.020684 2223.427979 2219.896498 2216.039551 2212.088989 2207.933743 2203.844794
2996.180094 2996.383341 2998.086914 2999.908854 3000.315552 2999.916992 3000.321615 3001.421672 3001.334595 3000.740438 3000.222046 2999.566895 2999.22465 2999.546305 3000.261963 3001.217896 3001.847778 3002.110962 3002.687907 3003.411377 3003.452026 3002.847778 3002.545247 3002.685059 3003.164836 3003.204915 3002.664551 3002.378906 3001.456462 3000.791016 3001.059285 3000.046102 2999.47998 2998.962646 2999.421834 2999.716431 2999.362305 2997.908244 2996.597046 2995.346151 2993.778564 2993.136475 2993.228678 2993.284424 2992.11499 2990.627279 2988.605591 2986.200562 2984.305542 2982.593099 2980.706543 2978.924072 2977.36259 2975.732422 2974.193319 2972.670085 2971.567017 2970.051554 2968.553955 2966.210571 2964.138672 2962.952759 2961.166382 2958.458211 2956.125651 2954.20105 2952.342285 2951.339071 2949.823486 2947.682454 2944.877482 2942.38855 2940.403605 2938.248657 2935.17749 2932.639648 2932.102132 2929.975464 2927.761353 2925.42391 2924.232422 2922.624268 2920.456909 2918.165527 2916.364624 2915.844604 2915.548462 2914.76123 2913.717733 2911.553955 2910.233643 2908.211141 2906.202026 2905.334066 2904.848226 2904.29541 2903.364095 2902.74825 2902.506958 2900.743042 2899.136393 2897.11145 2894.942912 2892.769653 2892.519043 2892.038615 2890.597778 2887.976562 2884.478231 2880.355713 2875.987549 2871.211426 2866.581502 2861.819946 2856.674276 2851.122518 2845.115479 2838.403687 2831.575277 2824.908447 2818.262166 2811.545451 2804.831543 2797.951986 2791.450317 2785.188477 2778.917847 2774.577026 2769.713013 2765.020549 2761.514893 2758.87146 2757.498494 2754.658529 2752.130981 2749.037923 2745.47876 2741.750977 2737.595418 2733.484701 2729.92395 2727.175252 2724.548503 2721.54895 2718.516439 2715.327352 2713.068481 2711.162476 2709.005086 2706.975464 2706.146484 2704.746541 2700.933105 2697.96932 2695.666056 2691.864502 2686.197144 2679.734741 2673.398071 2668.052653 2663.596069 2658.641968 2653.418498 2648.331828 2642.771973 2637.22347 2631.161051 2624.787964 2618.418416 2611.934245 2605.556885 2598.823853 2591.693929 2584.296997 2577.242025 2570.544434 2564.143555 2557.783407 2551.503296 2545.590576 2539.658447 2533.460938 2527.005005 2520.475179 2514.276042 2508.279053 2502.006917 2495.591919 2489.237549 2482.996785 2476.758586 2470.54248 2464.726725 2459.211792 2453.87854 2448.707601 2443.385946 2438.399902 2433.401978 2428.370239 2423.747437 2419.163289 2414.496745 2409.561035 2404.325928 2399.167643 2393.48999 2387.554281 2381.54598 2375.395508 2369.205322 2363.964437 2359.281006 2354.026652 2348.563395 2343.734985 2339.589681 2335.680583 2331.828003 2327.786092 2323.221273 2318.486084 2314.007568 2309.365845 2304.916504 2300.572225 2295.933146 2291.302002 2286.751099 2282.701823 2278.870483 2275.590413 2272.507731 2269.39502 2266.024455 2262.884399 2258.931519 2255.390177 2251.450155 2247.338013 2243.322754 2239.30542 2235.564087 2231.7736 2227.949341 2224.073975 2220.439128 2216.753418 2212.914429 2209.050781 2204.804159
2994.637926 2995.248074 2996.534261 2997.851101 2998.475559 2998.177734 2998.096083 2998.683648 2999.154175 2998.616333 2997.948066 2997.893473 2997.566284 2997.24958 2997.887044 2999.025743 2999.317627 2999.383667 3000.084337 3000.450412 3001.308105 3000.872843 3000.610053 3000.313151 3000.718262 3001.092068 3000.498128 3000.386664 2999.80344 2998.843018 2998.548191 2997.633952 2996.892293 2996.630235 2996.92829 2996.918009 2996.218872 2995.623847 2995.028727 2994.064779 2992.507161 2991.247681 2990.701945 2990.006755 2988.851156 2987.735691 2986.242906 2984.527954 2982.849474 2980.823581 2979.023031 2977.568061 2976.197483 2974.11674 2972.335503 2970.528592 2969.101644 2967.899645 2966.277941 2963.645793 2961.656616 2960.730442 2958.902669 2956.588379 2954.198378 2951.866007 2949.698025 2948.267836 2946.343221 2943.868802 2941.328586 2939.936727 2937.723524 2935.451321 2932.606079 2930.141981 2928.866686 2928.001017 2926.698663 2924.569485 2922.467733 2920.833835 2918.899835 2916.931519 2915.030138 2913.727648 2913.244466 2911.746392 2910.256524 2908.953491 2908.228746 2906.336792 2903.978271 2901.686089 2901.211643 2901.811686 2902.329508 2902.035862 2901.168376 2899.623725 2897.474067 2894.920858 2892.34333 2890.014092 2889.863078 2889.899631 2888.760986 2886.433065 2883.686673 2880.197767 2875.180908 2870.45497 2866.073256 2861.450643 2856.176242 2850.571452 2845.023844 2838.420844 2830.92315 2823.585327 2816.801351 2809.946289 2803.354451 2796.61457 2790.043321 2783.326538 2776.851169 2771.030043 2765.483887 2760.873996 2756.786201 2754.101847 2752.428928 2751.271091 2748.825724 2745.104262 2741.376506 2738.06897 2734.870972 2730.804606 2726.731486 2724.050103 2722.557658 2720.64681 2717.250041 2713.805284 2711.064535 2709.272203 2706.901462 2703.972331 2701.214898 2699.918172 2697.646159 2693.994765 2691.61792 2688.719849 2683.858398 2677.693983 2671.293823 2665.160428 2659.845757 2654.601522 2649.167386 2643.919922 2638.722168 2633.548381 2627.786662 2621.784831 2615.660834 2609.45756 2603.111816 2596.517687 2589.697618 2582.705282 2575.468262 2568.366889 2561.10083 2554.451375 2548.130507 2542.012817 2536.029677 2529.954712 2523.55013 2517.144952 2511.063273 2505.266968 2499.045844 2492.617486 2486.289998 2480.038534 2473.926473 2467.876628 2461.97899 2456.373928 2450.808512 2445.117757 2439.381944 2434.22937 2429.236532 2424.239448 2419.35319 2414.71205 2410.025635 2405.307129 2400.639838 2395.750176 2390.346151 2384.706719 2378.931166 2373.042643 2367.012533 2361.640625 2357.277873 2352.588108 2347.154215 2341.838013 2337.393311 2333.271606 2329.407308 2325.657864 2321.680949 2317.313354 2313.111138 2308.772149 2304.14152 2299.424981 2294.841851 2290.296224 2285.942234 2282.156494 2278.671997 2275.421088 2272.138821 2268.883057 2265.670193 2262.57883 2258.80249 2255.536201 2252.358982 2248.691366 2245.014988 2240.864529 2236.866984 2233.097887 2229.269762 2225.186483 2221.252523 2217.45105 2213.795207 2209.837769 2205.609999
2992.950127 2993.561768 2994.682373 2995.596124 2996.365573 2996.208537 2995.686686 2995.49334 2995.965332 2996.245307 2996.130561 2996.218791 2995.926459 2995.371989 2995.806356 2997.194621 2997.395291 2997.55835 2997.879435 2997.940538 2998.45695 2998.609782 2998.685194 2998.363159 2998.393338 2999.087986 2999.25179 2998.854031 2998.363783 2997.36731 2996.388862 2996.005561 2995.120036 2994.831082 2994.844442 2994.544393 2994.52238 2994.162272 2992.93335 2991.747192 2990.915283 2989.715495 2988.685913 2987.919447 2986.441772 2985.205295 2983.810099 2982.576131 2980.675401 2978.938205 2977.551758 2976.276381 2974.518907 2972.552327 2970.429186 2968.518514 2966.963501 2965.915188 2964.855008 2962.172974 2959.856445 2958.175741 2956.253825 2953.92159 2952.07114 2950.119832 2947.694336 2945.711575 2943.411825 2940.641927 2938.12382 2936.989624 2935.635837 2933.595025 2931.144531 2928.608561 2926.800564 2925.894653 2925.093452 2922.984619 2920.918213 2919.815267 2918.173218 2916.637533 2914.471992 2912.369602 2910.503866 2908.240167 2906.059923 2905.114787 2905.570801 2904.50906 2902.522176 2899.286458 2898.25727 2899.658122 2900.667426 2900.721883 2899.490112 2898.043864 2896.114543 2893.897339 2891.139147 2888.730089 2887.712402 2887.045125 2885.376289 2883.639526 2881.473687 2878.306844 2874.00529 2870.104804 2866.378676 2861.131429 2854.962687 2849.306017 2843.610881 2837.494141 2830.381104 2822.659465 2815.243774 2808.439982 2801.684204 2794.954468 2788.291667 2781.572673 2775.03399 2768.730414 2762.640991 2757.563165 2752.654785 2748.575643 2747.10201 2746.571208 2744.942139 2741.542942 2737.203071 2734.20931 2731.719103 2728.123522 2723.723999 2720.786743 2720.570407 2719.559285 2716.575779 2712.924384 2710.082845 2707.938938 2705.540866 2702.079956 2697.869059 2694.762438 2693.284871 2690.560194 2687.464898 2685.008341 2680.779677 2674.819933 2668.455851 2662.295247 2656.417833 2650.893311 2645.328179 2639.809313 2634.401164 2629.312107 2623.982856 2618.039876 2612.188978 2606.217231 2600.043335 2593.444946 2586.835788 2580.148438 2573.322496 2566.263713 2558.933472 2552.023831 2545.326104 2538.696818 2532.336426 2525.960897 2519.699707 2513.606689 2507.588894 2501.852987 2496.142619 2490.004652 2483.631388 2477.299574 2471.220405 2465.237061 2459.44888 2454.035943 2448.572103 2442.450439 2436.191216 2430.502116 2425.253242 2420.31014 2415.502645 2410.487996 2405.68887 2400.967 2396.455675 2391.806491 2386.6014 2381.016452 2375.591919 2370.109131 2364.401666 2358.783854 2354.078044 2349.643188 2344.730197 2339.799316 2335.546563 2331.362128 2327.220662 2323.509318 2319.856296 2315.881795 2311.800266 2307.355618 2302.66687 2298.043769 2293.707628 2289.51416 2285.445001 2281.910048 2278.538167 2275.175239 2271.910536 2268.835531 2265.614855 2262.284302 2258.644735 2255.291924 2251.840522 2248.692179 2245.616211 2241.990112 2237.962077 2234.099013 2230.294081 2226.046305 2222.078356 2218.264676 2214.40682 2210.557916 2206.3471
2991.026164 2991.471924 2992.266479 2993.111491 2993.466512 2993.480469 2993.46342 2993.298421 2993.64856 2994.079305 2994.423543 2994.343994 2993.970947 2993.444417 2994.50647 2995.249268 2995.313354 2995.348022 2995.53536 2995.848674 2995.775513 2996.193604 2996.56958 2997.011475 2996.96228 2997.097371 2997.670044 2997.190959 2996.910197 2996.346558 2994.851359 2994.413737 2993.982544 2993.244588 2992.517049 2992.632446 2993.013672 2992.552856 2991.66748 2991.016439 2989.592285 2987.924438 2987.073853 2986.231364 2984.796021 2983.263428 2982.060832 2980.771484 2978.733317 2977.185872 2976.096069 2975.469767 2973.616536 2972.229492 2969.6014 2966.895711 2964.880981 2963.905924 2962.821737 2961.005493 2958.674601 2956.71049 2954.248413 2951.688843 2949.628092 2947.727051 2945.649333 2943.931803 2941.626465 2938.58134 2936.49882 2934.929443 2933.57959 2931.725342 2929.330566 2926.968913 2925.126261 2923.789062 2922.670858 2921.344157 2919.911011 2918.738241 2917.681519 2915.916504 2913.873576 2910.945923 2907.745605 2905.359416 2903.387573 2902.138916 2902.358195 2902.288208 2900.530396 2897.526896 2896.440267 2897.352417 2898.245931 2898.62089 2897.452026 2895.901245 2894.875448 2893.174561 2891.135335 2888.946208 2886.664917 2884.147013 2882.082804 2880.015015 2877.95516 2875.689331 2872.511475 2869.108887 2865.054728 2859.558472 2853.124227 2846.474243 2840.264526 2834.459147 2828.456746 2821.234009 2813.982747 2806.844279 2799.812988 2793.082438 2786.652588 2780.121094 2773.546427 2767.001424 2760.478516 2754.547404 2749.882487 2745.098022 2741.860718 2741.197266 2740.42749 2737.987996 2734.334635 2730.702515 2728.360433 2725.156291 2720.715454 2717.48173 2717.299235 2717.163452 2714.395101 2710.954346 2708.841919 2707.179769 2704.330648 2700.620972 2695.941772 2690.9375 2688.222534 2686.697266 2683.142375 2680.52356 2677.125407 2671.474569 2665.1875 2658.930257 2652.791138 2646.897583 2641.156047 2635.637655 2630.369019 2625.054077 2619.815633 2614.492554 2608.934977 2603.105916 2596.889038 2590.444255 2583.860189 2577.39502 2570.761597 2563.809082 2556.807495 2549.77006 2542.916016 2536.087036 2529.084391 2522.286906 2515.908936 2509.891479 2503.910645 2498.101929 2492.547933 2486.902181 2480.695435 2474.575562 2468.526367 2462.580078 2457.011108 2451.643677 2446.11499 2440.125 2433.884969 2427.629517 2421.785929 2416.598551 2411.685547 2406.696777 2401.805216 2396.969482 2392.379272 2387.655151 2382.730469 2377.4823 2372.038167 2366.785034 2361.502767 2355.977051 2350.944946 2346.306925 2341.866007 2337.671021 2333.860921 2329.696086 2325.519531 2321.714193 2317.97762 2314.316528 2310.383993 2306.12557 2301.477539 2296.854899 2292.646525 2288.692505 2285.168335 2281.805908 2278.663086 2275.290365 2271.748698 2268.7146 2265.576253 2262.221151 2258.644531 2255.155233 2251.566772 2248.148926 2244.99117 2241.996989 2238.697998 2234.440918 2230.574341 2226.592529 2222.779989 2218.82491 2214.944458 2210.984416 2206.582764
2988.984606 2989.28734 2989.445312 2989.494046 2990.30717 2990.679565 2990.405056 2989.823934 2990.114136 2991.034614 2991.523573 2991.71814 2991.758626 2991.677585 2992.64563 2993.752455 2993.585626 2993.276693 2993.228271 2993.30721 2993.417074 2994.157294 2994.578979 2995.121582 2995.122016 2994.876858 2995.608154 2995.618869 2995.261678 2994.758179 2993.548584 2992.86004 2992.584473 2991.839301 2990.946086 2990.944865 2991.21658 2990.555162 2989.848999 2989.431044 2988.130792 2986.595459 2985.898261 2984.709364 2983.457845 2982.373603 2980.432685 2978.991984 2977.301066 2974.648071 2973.923503 2974.079441 2972.442003 2971.001953 2968.752577 2965.968764 2963.55485 2962.203261 2961.111884 2959.800781 2957.548096 2955.256226 2952.676636 2950.171482 2948.058784 2945.897013 2943.908556 2941.645508 2939.112712 2936.562405 2934.743218 2933.02063 2931.622192 2929.164849 2926.697266 2925.347575 2923.800876 2922.281169 2920.974826 2919.971951 2918.877075 2917.842204 2916.886664 2914.885173 2912.71266 2909.81132 2906.406128 2903.785522 2902.194065 2900.980184 2900.296617 2899.930474 2898.473836 2896.435818 2895.087823 2895.097819 2895.95931 2896.403646 2895.258504 2894.274183 2893.300876 2892.288981 2890.85475 2888.583903 2885.497803 2882.315389 2880.176785 2878.15686 2875.917236 2873.414252 2870.164551 2866.515449 2862.36499 2857.613851 2851.887845 2844.616794 2837.391886 2830.925157 2825.0727 2818.984863 2811.928182 2804.738105 2797.477824 2790.729085 2784.465386 2778.214884 2771.813178 2765.232435 2758.635335 2752.221246 2746.778741 2742.163859 2737.770888 2735.374647 2734.861003 2734.009928 2731.160265 2726.956217 2724.598267 2722.069038 2718.129476 2714.289076 2712.884318 2713.084025 2711.403904 2707.968913 2705.197957 2704.056478 2701.844428 2697.943034 2693.17022 2688.272759 2683.769002 2681.284614 2678.760742 2675.608073 2672.968316 2668.439236 2662.262695 2655.850654 2649.662367 2643.756714 2638.000122 2632.180149 2626.83134 2621.575684 2616.236667 2611.065999 2605.819417 2600.133043 2593.90389 2587.342516 2580.714166 2574.149129 2567.596395 2560.704915 2554.150146 2547.394219 2540.613485 2533.850301 2526.803413 2519.63836 2512.970174 2506.595852 2500.201945 2494.258179 2488.639201 2483.077813 2477.12915 2471.07822 2464.938558 2459.056356 2453.640557 2448.099582 2442.443522 2436.673218 2430.763523 2424.788534 2418.83275 2413.130507 2408.039103 2403.132595 2398.188477 2393.305542 2388.535984 2383.867608 2379.178507 2374.289591 2369.025716 2363.666789 2358.3109 2353.059842 2348.192017 2343.684964 2339.423286 2335.248494 2331.360338 2327.439779 2323.53304 2319.855089 2316.214884 2312.557699 2308.909275 2305.087592 2300.652995 2296.042236 2291.688734 2287.730143 2284.393243 2281.282688 2278.366862 2275.053657 2271.473877 2268.398234 2265.299737 2262.005737 2258.57137 2255.208672 2251.614176 2247.982829 2244.679959 2241.752984 2238.780151 2234.574341 2230.570299 2226.810872 2222.92475 2218.92159 2214.976034 2211.140896 2207.01614
2987.265422 2987.036608 2986.837321 2986.765706 2987.406847 2987.40979 2986.238458 2985.965698 2986.520996 2987.613688 2987.708428 2988.422689 2989.326999 2989.460938 2990.226969 2992.3007 2992.228746 2991.304362 2991.047146 2991.33001 2991.285807 2991.946384 2992.554159 2993.160645 2993.058485 2992.531752 2993.418172 2993.961127 2993.017592 2992.449259 2991.838026 2991.083021 2990.729126 2990.127916 2989.408854 2989.482992 2989.288873 2988.652751 2988.263143 2987.644708 2987.074436 2986.230509 2984.889893 2983.617174 2981.912231 2980.780843 2978.900282 2977.451538 2975.523438 2972.714328 2971.594198 2971.671631 2970.792318 2969.816325 2967.829861 2965.048625 2962.495321 2960.98013 2959.342896 2957.657349 2955.589003 2953.601969 2951.064209 2948.741496 2946.977851 2944.583211 2942.10692 2939.578776 2937.437012 2934.715997 2931.901123 2930.150065 2928.821452 2926.328234 2924.178141 2923.681613 2922.322971 2920.365479 2919.482734 2918.758518 2917.490723 2916.282037 2915.279839 2913.715942 2911.099352 2908.581312 2905.551432 2902.810845 2901.179308 2900.222249 2899.157986 2897.99764 2896.620158 2895.215115 2894.221124 2893.83134 2894.079888 2893.975111 2893.406331 2892.667765 2891.655802 2890.863647 2889.493978 2887.237576 2883.707479 2880.179728 2877.963677 2876.418498 2873.940877 2871.139228 2867.920166 2864.232747 2859.74646 2854.97819 2850.237278 2843.645616 2835.751587 2829.066908 2822.368368 2816.607015 2810.036323 2802.719971 2795.950846 2789.322157 2782.683838 2776.230387 2769.726305 2763.141832 2756.644124 2750.386976 2744.125176 2739.022135 2734.784044 2730.962362 2729.347168 2728.588718 2726.931817 2723.566569 2720.569404 2718.609294 2715.687297 2711.852173 2708.892782 2707.642619 2707.243015 2704.38501 2700.665324 2698.24197 2696.038127 2693.71818 2689.761434 2685.173082 2680.614705 2676.95284 2674.841498 2671.501546 2668.548855 2664.873386 2659.338989 2653.292996 2647.074666 2640.999878 2635.26317 2629.436551 2623.632365 2618.269436 2612.79031 2607.491048 2602.293823 2596.933241 2590.988118 2584.612996 2577.921034 2571.079224 2564.092502 2557.170234 2550.89624 2544.591851 2538.09493 2531.505493 2524.788981 2517.755425 2510.79484 2504.146172 2497.342516 2490.848633 2484.81562 2479.098931 2473.371541 2467.540012 2461.47305 2455.364014 2449.620375 2443.900703 2438.123291 2432.449015 2426.903836 2421.25297 2415.372694 2409.673028 2404.41154 2399.518066 2394.677233 2389.851644 2384.962538 2380.264526 2375.572306 2370.770114 2365.92372 2360.868368 2355.715495 2350.513875 2345.601278 2341.031318 2336.491659 2332.35258 2328.387329 2324.594808 2321.121989 2317.792223 2314.389445 2310.852661 2307.202488 2303.524102 2299.537801 2295.294298 2291.236003 2287.300496 2283.712796 2280.489461 2277.538534 2274.407566 2271.201796 2268.022257 2264.933322 2261.686388 2258.408732 2254.986898 2251.45303 2247.367716 2243.815891 2240.868639 2237.661865 2233.726549 2229.840373 2226.330241 2222.673462 2218.956828 2215.111206 2211.228502 2207.335069
2985.602417 2985.084839 2984.82251 2984.454386 2984.159383 2984.076538 2983.120443 2982.43868 2983.466919 2984.396647 2984.882487 2985.364502 2987.090942 2987.589193 2988.666382 2990.694336 2990.54012 2989.470581 2988.780721 2989.010824 2989.416016 2989.818278 2990.338298 2990.937988 2990.798991 2990.358114 2990.670532 2991.307821 2990.641927 2990.348022 2990.084513 2990.09611 2989.63855 2988.546427 2987.623169 2987.953491 2987.731283 2987.013102 2986.483398 2985.930298 2985.156982 2984.699585 2983.279012 2981.606445 2980.553955 2979.502848 2977.828654 2976.252075 2974.391032 2972.087769 2970.474487 2969.873332 2969.415771 2968.23999 2966.213094 2963.502116 2961.337036 2959.75529 2958.085368 2956.342529 2954.231079 2952.07369 2949.171021 2946.777262 2945.538249 2943.281006 2941.122518 2939.109985 2936.734985 2933.58846 2930.500081 2927.891479 2925.936198 2923.74117 2922.286011 2921.883097 2920.634115 2919.210938 2918.345052 2917.607544 2916.097412 2914.770182 2913.83431 2912.303467 2909.977702 2907.981852 2905.125488 2902.209676 2900.394694 2899.650513 2898.720622 2897.742432 2896.167969 2894.490112 2893.471029 2892.687988 2892.226359 2891.70634 2891.293457 2890.716146 2889.951986 2889.066528 2887.303385 2884.943563 2881.199951 2877.785563 2875.040405 2873.453979 2871.518107 2868.533895 2865.096558 2861.121948 2856.717041 2851.788452 2847.002116 2841.451375 2835.205078 2828.934448 2821.203735 2814.637939 2808.120321 2801.072795 2794.820435 2788.814535 2781.983683 2774.866455 2768.03894 2761.310628 2754.765015 2748.521403 2742.213216 2736.261963 2731.592529 2727.65922 2724.687012 2722.763143 2720.870646 2719.237061 2716.416219 2714.135335 2712.102905 2709.136312 2705.338908 2702.633545 2702.041056 2700.252726 2696.723511 2693.075439 2689.819417 2687.846558 2685.643595 2681.759318 2677.495483 2673.764852 2670.948079 2668.154907 2664.450236 2661.113444 2656.276489 2650.705444 2645.178914 2638.939575 2632.691935 2626.91272 2621.547485 2616.299032 2610.338135 2604.390991 2598.857056 2593.494507 2588.002563 2582.183105 2575.648071 2568.865967 2561.831909 2554.867594 2548.12793 2541.667684 2535.177612 2528.687012 2522.15979 2515.338908 2508.686523 2501.866618 2495.055908 2488.282959 2481.828491 2475.595174 2469.652466 2463.961466 2458.095785 2451.980957 2445.943685 2439.944539 2433.891968 2428.044759 2422.541423 2417.17395 2411.603027 2405.934692 2400.590454 2395.559733 2391.027262 2386.485474 2381.829915 2376.963175 2372.130493 2367.276652 2362.560059 2357.902954 2353.214559 2348.011108 2343.063965 2338.409261 2333.799276 2329.609009 2325.56071 2321.647339 2318.281982 2315.294189 2312.289225 2309.234497 2305.598796 2301.862223 2298.140015 2294.480021 2290.815063 2287.228516 2283.521729 2280.164998 2276.907959 2273.607707 2270.305908 2267.129028 2263.887207 2260.911336 2257.824951 2254.390869 2250.694173 2246.81189 2243.027303 2239.516561 2235.973511 2232.213867 2228.726318 2225.508423 2222.095581 2218.449748 2214.797485 2210.753255 2206.765828
2983.720513 2983.720785 2983.266439 2982.641045 2982.162259 2981.877035 2981.651557 2980.921509 2980.790975 2981.312568 2981.943332 2982.870158 2984.299927 2985.409342 2986.951945 2988.336914 2987.741075 2986.807861 2986.575087 2986.589532 2987.259847 2987.526069 2987.616401 2988.25236 2988.322483 2988.015069 2987.994141 2987.720364 2987.325941 2987.520874 2987.839274 2988.709296 2988.637655 2987.733534 2987.250068 2987.236857 2986.732598 2986.060126 2985.560791 2984.551202 2982.871989 2982.976115 2982.098741 2980.353746 2979.796672 2978.684326 2977.340129 2975.535726 2973.701647 2972.173394 2969.797974 2968.410848 2967.746989 2966.395142 2964.527737 2962.559082 2960.384603 2958.514906 2956.837999 2954.891764 2952.835639 2950.717312 2948.098307 2945.905206 2943.969442 2941.83134 2940.385796 2938.779555 2936.163371 2932.706719 2929.673882 2926.772624 2924.422689 2922.52714 2921.109741 2919.729669 2918.647447 2918.024658 2917.632582 2916.902398 2915.340007 2913.518026 2912.184408 2910.911499 2909.121162 2907.386203 2904.877604 2902.250149 2900.249349 2899.182332 2898.37165 2897.06448 2895.244873 2893.354994 2892.150092 2891.557332 2890.529148 2889.576321 2889.461019 2888.811401 2887.754679 2886.431396 2884.676053 2882.205214 2878.848714 2875.427422 2872.355523 2869.894816 2868.059163 2865.311089 2862.041789 2858.434896 2854.16881 2848.999959 2843.922119 2839.150119 2834.229411 2828.148872 2820.8117 2813.415324 2806.096585 2799.009115 2792.434163 2786.030287 2779.777507 2773.180054 2766.739855 2759.991265 2753.33785 2747.009454 2740.56977 2734.269246 2728.707967 2724.583211 2721.028442 2717.926595 2715.744113 2714.06132 2712.324422 2709.760742 2708.032552 2705.956692 2702.528347 2699.178141 2697.257718 2695.947428 2692.977987 2688.982558 2684.933485 2682.057129 2679.840264 2677.619195 2674.041585 2670.14738 2667.54735 2664.770711 2660.931057 2657.122735 2652.895793 2647.602376 2642.391466 2636.995483 2631.250176 2625.258762 2619.661051 2614.374715 2608.701158 2602.652181 2596.56132 2590.583198 2584.819824 2578.999457 2572.792453 2566.331136 2559.645318 2552.92494 2546.143148 2539.541924 2532.861084 2526.093424 2519.561618 2512.861111 2506.103353 2499.360677 2492.644029 2485.884644 2479.308309 2472.920302 2466.917318 2460.930528 2454.809448 2448.725505 2442.623874 2436.492757 2430.391113 2424.361491 2418.653076 2413.222046 2408.029012 2402.585965 2397.082113 2391.85045 2387.01728 2382.520386 2378.260064 2373.685343 2368.727661 2363.947767 2359.374471 2354.699219 2350.110419 2345.420342 2340.581665 2335.81585 2331.256931 2326.942546 2322.830322 2319.157294 2315.503947 2312.383328 2309.705241 2307.115967 2303.785197 2300.094333 2296.804321 2293.620877 2290.20223 2286.688477 2283.089315 2279.559787 2276.165487 2272.684394 2269.222616 2265.910156 2262.700616 2259.730035 2256.701701 2253.518365 2250.123115 2246.264323 2242.396471 2238.613308 2234.629964 2230.71068 2227.341268 2223.961955 2220.506822 2217.081326 2213.254842 2209.057712 2204.855781
2981.835124 2981.647881 2980.942993 2980.249308 2980.077121 2980.105794 2980.303128 2979.855401 2979.08134 2978.882677 2979.458306 2980.30485 2981.680583 2982.936211 2983.752645 2985.014309 2984.664103 2984.208659 2984.453912 2984.405897 2985.065633 2985.133531 2984.616631 2984.953654 2984.951864 2984.704942 2984.828979 2984.882134 2984.263848 2984.255005 2985.225776 2986.981689 2987.217448 2986.785997 2986.585938 2986.180379 2985.319851 2984.355496 2983.842651 2983.240031 2982.199382 2982.024292 2981.004137 2979.899672 2979.081502 2977.856323 2976.623888 2974.832316 2973.08058 2971.197035 2969.656982 2968.097263 2966.629706 2964.707845 2963.309123 2961.660563 2959.359578 2957.329142 2955.416368 2952.849894 2950.632053 2948.812866 2946.535319 2944.829373 2942.736274 2940.362427 2938.529066 2937.388251 2935.174316 2932.089261 2928.714491 2925.880534 2923.632229 2921.341919 2919.318522 2917.690023 2916.63364 2916.095988 2916.398885 2915.740587 2913.705322 2912.003947 2910.807929 2909.926514 2908.424411 2906.660292 2904.475993 2902.095798 2899.769409 2898.295125 2897.359877 2896.092923 2894.19047 2892.206136 2890.798665 2890.154175 2889.324788 2888.103882 2887.38033 2886.226671 2884.813639 2883.138997 2881.178955 2878.793294 2875.699137 2872.721707 2869.846137 2866.961792 2864.78517 2862.083483 2858.796712 2855.623562 2851.387112 2846.123494 2841.104791 2836.357001 2832.005981 2826.722751 2819.56604 2811.80717 2804.241496 2797.147786 2790.004476 2783.154053 2777.061049 2770.821777 2764.699015 2758.205146 2751.696533 2745.50921 2739.386163 2732.9705 2726.754706 2721.715305 2717.974813 2713.587863 2711.18708 2708.894084 2707.262044 2705.745321 2703.694092 2701.896918 2699.173055 2695.7288 2693.154853 2691.456923 2688.721761 2685.520901 2681.147325 2677.224406 2674.370158 2672.071913 2670.115479 2666.603271 2663.411201 2661.052694 2657.813572 2653.622965 2649.349854 2644.515245 2639.214952 2634.125203 2629.202637 2623.807468 2618.233887 2612.760118 2607.183675 2601.534342 2595.738336 2589.462226 2582.773234 2576.238688 2569.947795 2563.486532 2556.931532 2550.435154 2543.952881 2537.344306 2530.680691 2523.798421 2516.98272 2510.087714 2503.409505 2496.824382 2490.248589 2483.581624 2476.931668 2470.295383 2464.313639 2458.381198 2452.010349 2445.690796 2439.34729 2433.099528 2427.116862 2421.065308 2415.303114 2409.650513 2404.538479 2399.427938 2393.980021 2388.478461 2383.20204 2378.408366 2374.113756 2369.803453 2365.273966 2360.757718 2356.086087 2351.443481 2347.057197 2342.723294 2338.334106 2333.613308 2328.844428 2324.3243 2320.201633 2316.615885 2313.069132 2309.749064 2307.16253 2304.824463 2301.850817 2298.438883 2295.483195 2292.58195 2289.385335 2285.909302 2282.389784 2278.72286 2275.322144 2271.442491 2267.790758 2264.532471 2261.238403 2258.490533 2255.492228 2252.403958 2249.07978 2245.420492 2241.476725 2237.387031 2233.422201 2229.579278 2226.053684 2222.287679 2218.801093 2215.394721 2211.570312 2207.342407 2202.988295
2979.670736 2979.125895 2978.163452 2977.721842 2977.881755 2978.386963 2978.493856 2978.479614 2977.451538 2976.940755 2977.324259 2977.781494 2978.666382 2979.25883 2980.062012 2981.610677 2981.796427 2981.868408 2982.350179 2982.237671 2982.286011 2982.032918 2981.594482 2981.541992 2981.448771 2981.482951 2981.348511 2982.011556 2981.749919 2981.935425 2982.899251 2985.055827 2985.112549 2984.885132 2985.469238 2984.875 2983.464274 2983.366821 2983.060059 2982.293986 2981.800618 2981.629517 2980.457316 2979.536499 2978.434448 2976.682902 2975.172892 2973.538574 2972.295736 2970.63741 2969.494019 2967.345825 2965.578247 2963.171509 2962.051432 2960.368083 2957.716064 2955.753866 2953.463826 2950.604004 2948.341634 2946.555745 2944.336426 2942.869303 2940.882609 2938.670532 2936.380249 2934.531087 2932.776001 2930.29541 2927.579753 2925.407471 2923.152059 2921.028646 2918.648438 2916.623088 2915.338908 2914.208496 2913.935425 2913.196289 2911.916992 2910.629435 2909.623576 2908.489502 2907.202352 2905.648193 2904.069458 2901.851196 2899.418742 2897.215576 2895.317952 2894.161336 2892.609497 2890.81897 2889.317301 2888.596558 2887.690959 2886.666789 2884.637939 2883.576497 2881.767415 2879.5625 2877.277262 2874.870646 2871.788452 2868.97168 2866.907471 2864.44397 2861.580607 2858.330485 2855.139526 2851.84672 2847.925008 2843.516479 2838.301514 2833.488892 2829.004517 2823.91276 2817.44873 2809.69043 2802.616414 2795.538778 2788.536499 2781.558879 2775.047241 2768.86499 2762.38383 2756.005452 2749.678467 2743.465169 2737.509359 2731.108032 2724.919067 2719.094076 2714.745972 2710.748088 2707.065633 2704.761475 2702.291016 2701.69104 2700.190552 2698.077271 2695.392131 2692.39502 2689.67509 2687.325236 2684.661011 2681.871094 2677.506877 2673.294556 2669.957642 2666.683512 2664.563965 2662.466064 2658.945964 2656.625 2653.973674 2650.517049 2646.436523 2641.888184 2636.833252 2631.273438 2626.109049 2620.947306 2616.237915 2611.870076 2606.60498 2600.718994 2594.722738 2588.467855 2581.754517 2574.766439 2567.918905 2561.181519 2554.372721 2547.847046 2541.460449 2535.02478 2528.283244 2521.55896 2514.595459 2507.519653 2500.807983 2494.09786 2487.537801 2481.037476 2474.461792 2467.813436 2461.534058 2455.421427 2449.042236 2442.747925 2436.336385 2429.907145 2423.827515 2417.842407 2411.913249 2406.094604 2400.745728 2395.697306 2390.643555 2385.371948 2379.851115 2374.784546 2370.124552 2365.692993 2361.44104 2357.250773 2352.819214 2348.290527 2343.931925 2339.656209 2335.450928 2331.137858 2326.371216 2321.677979 2317.511759 2313.696859 2310.386475 2307.397827 2304.925293 2302.577026 2299.593831 2296.945516 2294.296509 2291.4611 2288.392863 2285.1604 2281.444255 2277.580119 2273.916992 2269.872925 2265.925578 2262.728027 2259.602376 2256.680623 2253.981567 2250.856649 2247.766642 2244.19751 2240.495483 2236.549561 2232.698608 2228.863363 2225.206746 2221.249023 2217.485107 2213.970093 2210.416992 2206.340047 2201.915812
2977.396769 2976.522068 2975.363485 2975.231757 2975.469794 2975.96932 2976.030667 2975.990451 2975.203491 2975.134142 2975.32491 2975.470093 2975.836209 2975.872084 2976.758545 2978.458238 2978.49391 2979.03418 2979.490112 2979.472209 2979.644857 2979.608738 2979.263685 2978.67981 2978.356825 2978.592624 2978.420085 2978.850233 2979.675496 2980.261556 2980.816989 2982.172173 2982.333374 2982.660617 2982.762614 2982.837362 2981.94321 2982.420912 2982.244141 2981.741659 2981.309123 2980.567098 2979.494724 2978.652846 2977.307332 2975.835259 2974.795831 2973.049194 2971.275499 2969.817166 2968.463826 2966.122735 2963.978027 2961.942708 2959.868747 2958.339884 2955.859863 2953.451416 2951.063043 2948.716512 2946.489041 2944.582642 2942.94751 2941.012465 2938.916924 2936.543457 2933.991319 2931.879978 2930.048503 2928.513401 2926.81642 2924.703857 2921.853326 2919.828111 2918.030314 2915.696208 2914.19949 2913.074178 2911.895454 2910.972195 2910.302205 2909.444241 2907.996962 2906.524984 2905.478611 2904.249769 2903.062215 2901.035712 2898.70383 2896.17395 2893.376804 2891.471558 2889.917806 2888.824273 2887.562269 2886.753825 2885.589762 2884.739814 2882.636678 2881.076267 2879.28068 2876.188354 2873.692708 2871.359673 2868.191854 2864.834174 2862.41135 2860.09082 2857.625448 2854.269124 2851.113363 2848.087036 2844.204251 2840.062174 2834.961372 2830.080458 2825.404297 2820.485596 2815.253594 2808.230876 2801.268555 2794.283217 2787.29952 2780.35182 2773.558404 2767.319255 2760.911092 2754.437297 2747.885091 2741.494032 2735.218872 2728.974487 2722.677653 2716.70048 2711.401001 2707.504706 2703.013333 2700.363851 2698.630032 2697.112291 2696.314494 2694.856906 2692.326999 2688.907674 2686.548977 2685.003703 2681.082642 2677.799452 2673.93396 2669.318888 2665.602797 2661.901625 2658.656494 2656.965915 2654.825345 2652.295003 2650.066895 2646.724406 2642.936442 2638.974406 2634.76888 2629.948649 2624.50925 2618.732883 2613.810018 2609.443468 2604.732029 2599.585286 2593.892429 2587.770806 2580.950358 2574.161608 2567.498671 2560.613485 2553.622084 2546.586019 2539.809163 2533.104763 2526.365329 2519.56901 2512.743205 2505.943821 2499.080282 2492.149536 2485.400065 2478.587362 2471.91961 2465.536011 2459.250285 2452.729818 2446.208211 2439.843994 2433.522217 2427.217217 2420.959676 2414.749946 2408.753581 2402.846517 2397.293321 2391.791409 2386.723022 2381.808621 2376.810994 2371.707194 2366.811903 2361.991007 2357.581868 2353.500692 2349.170722 2344.852336 2340.661879 2336.583035 2332.382812 2327.947862 2323.369412 2319.103678 2315.074612 2311.088203 2307.610677 2304.768419 2302.373671 2299.992635 2297.440348 2295.073676 2292.649577 2289.987155 2287.004367 2283.852376 2280.254964 2276.513577 2272.596965 2268.308241 2263.983832 2260.744019 2257.630819 2254.756944 2252.127808 2249.307671 2246.491848 2243.197103 2239.763102 2236.081462 2232.202515 2228.50864 2225.024957 2220.815633 2216.55287 2212.757907 2209.257202 2205.565959 2201.565104
2974.956489 2974.001492 2972.97819 2972.789022 2972.877726 2973.358195 2973.329766 2973.099799 2972.589966 2972.42669 2972.773709 2972.778117 2973.335653 2973.30778 2973.742269 2975.455594 2976.050822 2976.991455 2977.438666 2977.13817 2977.194784 2977.292711 2976.574124 2975.801514 2975.925971 2976.662123 2976.794027 2976.994168 2977.782403 2978.337199 2978.680895 2979.543796 2979.62797 2980.362237 2980.947428 2981.249349 2981.105306 2981.019721 2981.352295 2980.619168 2980.154487 2979.276611 2978.182576 2977.339003 2976.136678 2974.633708 2973.630358 2972.429362 2970.570747 2968.839586 2966.428223 2964.380412 2962.799059 2961.17867 2958.248427 2956.234334 2953.834798 2951.385837 2949.492527 2946.904012 2944.57411 2942.742716 2941.267822 2939.141181 2937.071208 2934.460531 2931.751478 2930.13147 2928.702108 2927.256727 2925.52082 2922.897664 2920.151503 2918.418715 2916.997518 2914.902466 2912.804823 2911.949097 2910.898234 2909.589369 2908.43396 2907.713515 2906.48074 2904.981445 2904.203722 2902.859389 2901.730347 2900.131293 2898.078274 2895.468099 2892.399495 2889.768338 2887.795858 2886.731052 2885.575453 2884.630534 2883.334229 2882.325046 2880.496134 2878.398966 2876.320312 2873.014811 2870.004327 2867.94066 2865.332194 2861.776489 2858.273071 2855.35494 2852.926066 2849.586019 2846.133138 2843.480279 2840.412855 2836.316203 2831.304281 2826.366401 2821.479614 2816.886176 2812.259847 2806.608561 2799.891656 2792.786418 2786.168905 2779.301432 2772.440538 2766.168823 2759.576647 2753.011773 2746.286987 2739.838976 2733.528144 2727.225871 2720.833767 2714.55759 2708.657064 2704.13189 2699.986925 2695.973226 2694.436415 2692.844686 2691.655518 2690.874634 2688.828057 2685.450073 2682.727525 2681.500312 2677.80599 2673.092828 2670.272868 2665.841349 2661.40587 2657.455811 2653.203328 2650.84276 2650.190226 2648.15918 2646.039998 2642.997464 2639.299438 2635.499105 2631.869683 2627.732096 2623.090725 2618.126261 2612.968343 2607.609687 2602.15077 2596.872477 2591.565782 2586.125583 2580.235881 2573.832872 2567.347616 2560.611043 2553.56448 2546.44222 2539.519816 2532.693834 2525.693034 2518.632812 2511.686781 2504.921509 2498.014079 2491.055244 2484.259182 2477.338867 2470.466702 2463.981106 2457.472819 2450.869453 2444.228285 2437.682699 2431.256877 2424.86853 2418.420817 2412.117825 2405.82978 2399.939046 2394.280518 2388.567152 2383.173218 2378.018853 2373.103895 2368.451009 2363.597182 2358.522176 2353.93278 2349.661987 2345.519938 2341.252563 2337.198988 2333.306505 2329.265828 2325.131578 2320.861559 2316.702271 2312.693522 2308.731527 2305.173055 2302.28894 2299.92532 2297.552002 2295.139228 2292.857463 2290.692179 2288.500393 2285.457587 2282.225708 2278.655585 2275.138875 2271.371663 2267.105726 2262.639648 2258.979289 2255.783583 2253.002211 2250.545166 2247.915704 2245.152439 2242.016764 2238.855469 2235.681912 2231.994832 2228.232286 2224.507039 2220.276245 2215.742133 2211.69401 2207.976481 2204.354967 2200.514431
2972.767985 2972.012166 2971.182007 2970.426066 2970.284465 2970.692993 2970.431396 2970.761393 2970.311523 2969.945394 2970.353923 2970.721924 2970.854899 2970.830688 2971.670044 2972.705363 2973.260376 2974.86853 2975.473918 2974.963257 2974.771484 2974.15686 2973.280192 2973.47644 2974.336914 2975.472575 2975.794556 2975.695231 2975.769491 2976.162476 2976.337565 2976.930827 2976.89502 2977.316854 2978.491781 2979.983521 2980.22998 2979.745768 2979.870483 2979.481445 2978.923991 2978.01001 2977.124552 2975.597046 2974.448975 2973.460653 2972.853963 2971.837891 2970.230754 2967.562297 2964.719482 2963.10909 2961.444865 2958.850952 2955.92216 2953.64799 2951.114014 2948.738932 2946.792318 2944.781006 2942.82373 2941.340373 2939.873047 2937.240356 2934.50293 2932.425537 2930.666707 2929.236654 2927.57605 2925.788493 2923.859375 2921.738403 2919.192261 2917.273112 2915.658081 2914.159709 2912.036296 2910.472046 2909.186768 2908.449259 2907.184937 2906.021037 2905.244263 2903.9729 2903.250244 2901.942668 2900.880005 2899.245158 2897.334351 2895.005005 2892.491903 2889.183594 2886.526489 2885.014893 2883.879842 2882.656006 2880.991903 2879.391968 2878.005493 2875.440145 2872.891927 2870.25061 2866.878947 2864.34314 2862.573608 2859.791992 2855.95695 2851.89856 2848.433146 2844.678263 2841.333496 2838.339722 2835.683065 2832.465454 2827.738851 2822.462158 2817.30249 2812.699382 2808.276774 2803.530518 2798.136556 2791.578939 2784.564941 2778.047811 2771.155314 2764.750488 2758.231242 2751.469564 2744.777588 2738.491374 2731.967936 2725.484985 2719.202108 2712.81132 2706.604004 2701.21521 2697.22758 2692.373535 2689.358317 2688.845011 2687.045532 2686.067342 2684.839111 2681.929077 2678.875366 2676.768636 2674.557983 2669.371338 2665.941366 2662.959473 2658.081991 2653.743612 2649.166992 2645.750773 2644.625895 2643.718506 2641.634481 2639.062052 2635.420898 2632.316284 2628.80127 2624.642456 2619.907593 2615.412557 2610.999023 2606.030762 2600.913371 2595.093506 2589.083252 2583.257243 2577.740967 2572.312419 2566.732381 2560.61792 2553.851034 2546.708496 2539.884033 2532.81779 2525.593669 2518.383423 2511.490479 2504.603068 2497.588013 2490.439412 2483.522909 2476.60144 2469.773397 2462.930949 2456.269531 2449.626587 2443.001424 2436.234497 2429.509766 2422.783081 2416.190552 2409.701945 2403.179525 2397.246948 2391.574422 2385.769572 2380.088013 2374.707723 2369.500407 2364.682983 2360.078613 2355.225098 2350.327515 2345.835775 2341.697591 2337.791992 2333.750122 2329.930135 2326.11499 2322.27828 2318.335815 2314.416992 2310.392822 2306.625326 2303.146484 2300.052205 2297.4163 2295.062012 2292.740356 2290.552856 2288.573975 2286.527954 2283.636312 2280.565063 2277.1816 2273.482259 2269.695557 2265.712809 2261.740438 2257.705933 2254.45988 2251.618083 2249.161499 2246.659261 2243.769246 2240.654541 2237.666545 2234.409912 2231.169434 2227.844849 2224.041545 2219.987549 2215.661906 2211.215088 2207.156494 2203.118734 2199.022868
2969.989502 2969.252469 2968.303833 2967.816366 2967.401055 2967.759847 2968.2559 2968.681519 2968.125366 2967.701199 2968.083957 2968.199829 2968.315091 2968.475681 2969.629557 2970.724311 2971.313639 2972.621663 2973.629096 2973.081543 2972.342977 2971.512424 2971.04659 2971.374512 2972.477186 2973.347955 2973.664754 2974.083754 2973.691569 2973.874959 2974.227566 2974.617174 2974.615763 2974.861192 2975.937581 2977.347941 2978.776788 2979.034695 2978.556193 2978.294339 2977.907308 2977.103475 2975.806613 2974.402737 2973.134115 2972.044759 2971.328613 2969.573405 2967.047418 2964.883789 2962.462118 2960.30363 2958.415202 2955.686646 2952.83473 2950.708808 2948.743001 2947.026042 2945.140191 2943.087036 2941.790609 2940.252862 2938.244181 2935.876506 2933.565579 2931.8007 2929.922038 2928.520331 2926.999797 2924.656209 2922.272786 2920.302694 2917.774685 2915.37519 2914.099325 2912.709663 2911.205214 2909.58431 2907.695774 2906.449368 2905.997314 2904.696181 2903.416273 2902.650879 2901.965671 2900.711466 2899.074219 2897.660739 2896.252116 2893.996134 2891.236667 2888.55112 2886.235067 2884.197537 2882.712009 2881.005168 2879.301147 2877.576023 2875.660197 2873.503635 2870.808865 2867.633911 2863.966227 2860.709866 2858.918172 2857.40347 2853.933214 2849.558187 2845.016249 2840.844835 2837.146525 2833.527913 2830.603448 2827.953166 2823.688029 2818.914537 2813.695353 2808.665283 2803.958591 2799.490723 2794.932536 2789.572496 2782.954305 2776.060194 2769.611084 2763.313192 2756.593045 2749.917291 2743.486898 2737.231974 2730.516412 2723.953328 2717.415351 2711.035685 2704.785889 2699.041395 2694.223619 2689.398193 2684.985094 2684.557576 2683.236532 2681.448161 2680.163981 2677.711833 2674.781372 2672.909424 2671.139323 2666.972968 2662.163805 2659.421509 2655.187649 2650.288764 2645.911214 2641.776557 2639.325928 2638.804036 2637.311469 2634.924249 2631.001831 2627.930257 2625.19439 2621.439168 2616.419298 2611.325779 2606.722819 2602.411675 2597.818576 2592.851278 2587.463704 2581.775431 2575.808309 2570.142049 2564.655124 2559.11971 2552.981839 2546.318902 2539.767171 2532.960232 2525.825222 2518.693766 2511.857015 2504.908502 2497.729167 2490.474704 2483.308906 2476.25354 2469.433431 2462.586372 2455.703206 2449.014296 2442.162693 2435.375936 2428.467787 2421.500285 2414.880819 2408.255561 2401.474148 2395.184326 2389.135769 2383.182468 2377.277995 2371.606608 2366.195163 2361.117228 2356.270766 2351.514635 2346.879028 2342.2508 2337.95501 2334.076538 2330.355808 2326.629747 2322.856527 2319.138116 2315.564711 2311.930461 2308.423204 2304.86716 2301.232829 2297.892904 2295.265069 2292.634237 2290.323595 2288.196587 2286.53833 2284.574721 2281.892497 2278.92513 2275.828003 2272.229438 2268.351318 2264.445638 2260.825372 2257.026367 2253.496094 2250.443929 2247.46167 2244.931274 2242.17079 2239.183187 2236.125814 2232.996134 2230.048462 2227.043552 2223.308811 2219.27828 2214.842801 2210.327352 2205.89384 2201.372572 2196.894016
2966.942844 2965.730143 2965.011027 2964.758938 2964.431112 2964.714355 2966.141168 2966.190945 2965.419637 2965.299493 2965.475613 2965.853638 2966.017673 2966.296468 2967.447632 2969.160617 2969.920166 2970.687012 2971.2492 2970.921373 2970.377848 2969.779744 2969.453952 2969.291504 2970.033624 2971.301866 2972.11731 2972.061673 2971.891724 2971.869019 2972.127808 2972.280938 2972.283 2972.472629 2973.575941 2975.188192 2976.693156 2977.983982 2978.116821 2977.591336 2976.531833 2975.445557 2973.941664 2972.677355 2971.445312 2970.154595 2968.038167 2965.556559 2962.800849 2960.685031 2959.261353 2957.697144 2955.60262 2952.857218 2950.804091 2948.460951 2946.828491 2945.452664 2943.238173 2941.606201 2940.27908 2938.627943 2936.987956 2935.30797 2932.965441 2930.714111 2928.273315 2927.168918 2925.35555 2923.081448 2920.735596 2918.409668 2916.094198 2913.964749 2912.658488 2911.42357 2910.171536 2908.964966 2906.879937 2905.208049 2904.65096 2903.640734 2902.143338 2900.913818 2900.21597 2898.938436 2897.571533 2896.450629 2894.993245 2893.090658 2890.623264 2888.521959 2886.940023 2884.716648 2882.011027 2879.810018 2878.131931 2876.307115 2874.422445 2872.421902 2869.704278 2866.172811 2862.297078 2858.438165 2855.480103 2853.207926 2850.747464 2847.36853 2842.732598 2838.145874 2834.014689 2829.890937 2826.215942 2823.207031 2819.7559 2815.175347 2809.852824 2804.840929 2800.096734 2795.537801 2790.901218 2786.127726 2780.697835 2774.155599 2767.827813 2762.058146 2755.291667 2748.759684 2742.250366 2735.822171 2729.396525 2723.283529 2716.494629 2709.451308 2703.034302 2697.060954 2691.550496 2686.782593 2682.12618 2680.249959 2679.484009 2677.184679 2675.129761 2673.329346 2670.625665 2668.629272 2666.717204 2663.866469 2658.800008 2655.208496 2651.894857 2647.250963 2642.947835 2638.892334 2634.844957 2633.812581 2633.172675 2630.829807 2626.702799 2622.737766 2619.913805 2617.033285 2612.867432 2607.560357 2602.679118 2598.039754 2593.607856 2588.924886 2584.000366 2579.105482 2573.924967 2568.600464 2563.01005 2557.178507 2550.983521 2544.561062 2538.219889 2531.79617 2525.171549 2518.598592 2512.260796 2505.534519 2498.487305 2491.235786 2483.772407 2476.410685 2469.303616 2462.42475 2455.451335 2448.612983 2441.636325 2434.71932 2427.882351 2420.882365 2414.119425 2407.435411 2400.656847 2394.032633 2387.619507 2381.074504 2374.72876 2368.764757 2363.285292 2358.047852 2352.791178 2347.663344 2343.075968 2338.716078 2334.298557 2330.396322 2326.880344 2323.394219 2319.717367 2316.08039 2312.919244 2309.618978 2306.279229 2303.117744 2299.648519 2296.191216 2293.426731 2290.858561 2288.379544 2286.096219 2284.286987 2282.325426 2279.955973 2277.413981 2274.417792 2271.181776 2267.546875 2263.934896 2260.258002 2256.472331 2252.767253 2249.210531 2245.737467 2242.881836 2240.065742 2237.182495 2234.344143 2231.494548 2228.508504 2225.50651 2221.791911 2217.271973 2213.15899 2208.804606 2203.770345 2198.965115 2194.36381
2963.771159 2963.008626 2962.307617 2961.932902 2962.42627 2963.08252 2963.902913 2963.800578 2962.885498 2962.59139 2962.666463 2963.171997 2963.148315 2963.720011 2965.22644 2967.19812 2968.199097 2969.000977 2969.174194 2968.898315 2968.672974 2968.593343 2968.099162 2967.87207 2968.515951 2969.127726 2969.964966 2969.892537 2969.706584 2969.840454 2969.923828 2970.113851 2970.508057 2970.619507 2971.720378 2973.420532 2974.315592 2975.325521 2975.894531 2975.245931 2974.321655 2973.581421 2972.409424 2970.916097 2969.329956 2967.535482 2965.480428 2962.819458 2960.409098 2957.787231 2955.833496 2954.057251 2952.977132 2950.973511 2948.794149 2946.60258 2944.911987 2943.414551 2941.522868 2940.294922 2939.095174 2937.552612 2935.645508 2933.680094 2931.569092 2928.791992 2926.593994 2925.001587 2923.37146 2921.521077 2919.078451 2916.966919 2915.230387 2913.236979 2911.471558 2910.100423 2909.300456 2908.424927 2906.949056 2905.12736 2903.689453 2902.313843 2901.225586 2899.606079 2898.104574 2897.445394 2896.354492 2895.07251 2893.231689 2891.838501 2890.342773 2888.35201 2886.440918 2884.395549 2882.046305 2879.383545 2877.092692 2875.116781 2873.448975 2871.502157 2869.338867 2865.757935 2861.655111 2857.641032 2853.395508 2849.698079 2846.911418 2844.05957 2840.285522 2836.197998 2831.779541 2827.724894 2823.726481 2819.875 2816.214518 2811.713786 2806.57251 2801.613363 2797.00175 2792.325562 2787.365885 2782.425903 2777.395996 2771.727091 2765.392863 2759.997559 2754.296712 2747.601562 2740.835571 2734.386149 2727.908691 2721.668579 2715.356242 2708.248901 2701.578003 2695.175618 2689.33313 2684.115479 2679.794596 2676.12618 2675.205444 2673.797445 2670.914144 2668.817505 2666.829956 2664.471558 2662.199097 2659.8691 2655.420858 2650.755981 2647.47994 2644.031657 2639.516968 2635.539958 2631.539917 2629.28894 2629.031779 2626.490885 2622.305054 2617.773885 2614.247274 2611.400024 2608.397583 2604.19165 2599.409546 2594.257365 2589.177409 2584.896973 2580.384277 2575.421916 2570.290527 2565.390096 2560.216756 2554.702515 2548.955729 2542.786499 2536.462036 2529.941732 2523.440063 2517.062988 2510.956787 2504.858561 2498.515015 2491.80485 2484.531494 2477.135986 2469.582438 2462.355672 2455.1875 2448.28536 2441.270386 2434.245972 2427.424438 2420.422892 2413.651489 2406.912842 2400.048625 2393.321533 2386.622355 2379.796387 2372.977051 2366.749959 2361.057617 2355.465454 2349.823527 2344.505127 2339.503418 2335.032389 2330.860636 2326.860474 2323.35022 2320.025228 2316.614502 2313.376424 2310.439616 2307.420044 2304.182658 2301.087565 2297.891479 2294.525594 2291.790609 2289.276978 2286.842326 2284.387288 2282.116577 2280.105143 2278.038493 2275.521973 2272.830892 2269.930908 2266.725464 2263.49589 2259.698283 2255.683472 2251.85791 2247.993571 2244.360962 2241.077596 2238.041707 2235.017944 2232.319417 2229.485962 2226.177979 2223.100464 2219.432251 2214.898438 2210.788737 2206.595418 2201.850952 2196.90625 2192.145508
2961.217068 2960.464844 2960.036987 2960.070991 2959.868761 2960.77356 2961.042169 2961.001343 2960.140218 2959.738715 2959.638753 2959.871704 2960.14841 2960.924506 2962.803223 2964.536011 2965.789876 2966.652181 2967.20832 2966.952786 2966.74882 2966.330173 2966.126248 2965.905924 2965.676649 2966.463257 2967.620158 2967.984307 2968.022352 2968.402466 2968.547323 2968.642131 2969.45756 2969.603271 2970.171373 2970.998047 2971.557183 2972.728516 2973.551188 2973.822116 2972.839857 2972.24117 2971.227892 2969.742839 2967.425741 2965.222724 2963.214261 2960.701986 2957.920668 2955.141195 2953.324463 2951.427273 2950.378418 2949.001546 2947.095581 2945.031372 2942.913289 2941.310601 2940.017537 2938.573812 2937.152059 2935.748047 2933.707804 2931.550985 2929.665609 2927.230021 2925.051663 2923.388523 2922.006307 2920.384888 2917.936835 2916.214518 2914.430216 2912.090535 2910.355794 2908.960503 2908.108792 2907.182983 2906.041273 2904.539266 2902.887533 2901.533583 2900.186062 2898.792806 2896.772881 2895.029853 2893.666463 2892.812202 2891.627916 2890.309163 2889.031833 2887.484389 2885.475342 2883.374986 2881.15663 2878.475464 2875.880669 2873.771227 2872.213704 2870.850071 2868.947808 2865.265828 2860.748711 2856.747518 2852.099487 2847.475572 2843.754734 2840.286947 2836.703573 2833.012438 2828.944295 2824.964098 2821.097453 2817.318522 2813.250163 2808.751533 2804.136678 2799.535658 2794.683634 2789.839193 2784.774889 2779.752713 2774.390503 2768.86556 2763.071425 2757.470662 2751.866903 2745.952664 2739.337687 2732.918715 2726.400974 2719.97111 2713.450385 2706.748454 2700.200155 2693.575968 2687.314304 2681.611694 2677.29895 2672.898044 2670.358114 2669.582303 2667.012858 2664.306193 2663.021254 2661.104275 2658.143717 2655.38364 2651.865641 2647.49353 2643.524848 2639.928521 2635.644694 2631.355089 2627.862861 2625.117513 2624.190538 2621.945869 2618.438802 2613.586534 2608.628242 2605.203003 2602.725288 2599.693332 2595.991496 2591.124173 2585.821167 2581.11377 2576.686157 2572.207397 2566.988973 2561.18731 2555.517008 2550.386515 2545.185574 2539.671387 2533.895671 2527.956868 2522.01496 2515.708618 2509.319811 2502.951267 2496.637329 2490.18689 2483.675117 2476.768351 2469.445095 2462.117011 2454.913127 2447.970066 2441.136163 2434.059652 2426.892117 2419.864665 2413.018107 2406.062269 2399.216092 2392.458944 2385.704115 2378.865194 2372.074341 2365.684041 2359.688761 2353.707031 2347.787489 2342.261298 2336.996989 2332.021674 2327.548679 2323.577393 2319.900974 2316.670383 2313.433919 2310.523546 2308.086141 2305.412231 2302.389567 2299.284776 2296.051392 2293.056505 2290.567152 2288.15389 2285.689806 2283.19774 2280.807495 2278.622057 2276.24528 2273.628255 2271.054606 2268.458849 2265.525309 2262.435384 2258.923353 2255.142537 2251.262085 2247.534804 2243.791138 2239.979818 2236.514445 2233.189657 2230.215101 2227.251234 2223.762736 2220.253432 2216.801012 2212.884155 2208.993354 2204.862427 2200.098551 2194.913059 2190.100776
