ncols   101
nrows   36
xllcorner          -1
yllcorner          -0.3
cellsize           0.020
NODATA_value -9999
0.16000000132768963       0.16000000200619555       0.16000000301210776       0.16000000449353646       0.16000000666080261       0.16000000981036977       0.16000001435703334       0.16000002087683021       0.16000003016372183       0.16000004330378031       0.16000006177136675       0.16000008755261591       0.16000012330240795       0.16000017254187174       0.16000023990426421       0.16000033143772965       0.16000045497385290       0.16000062057095824       0.16000084104061982       0.16000113256467269       0.16000151540796506       0.16000201472899045       0.16000266148621456       0.16000349343222256       0.16000455618067630       0.16000590432247389       0.16000760255754046       0.16000972679757422       0.16001236518319858       0.16001561894687505       0.16001960304133545       0.16002444644308356       0.16003029203273783       0.16003729594978136       0.16004562631984598       0.12505546125913541       0.12506698607401279       0.12508038959489221       0.12509585961283465       0.12511357742451484       0.12513371153591743       0.12515641062589455       0.12518179592561265       0.12520995322628564       0.12524092478220719       0.12937300069586977       0.13544222548254770       0.14161220097764407       0.14785852833539898       0.15415644342425816       0.16048091224019564       0.16680672945864544       0.17310861995762022       0.17936134304541718       0.18553979901215373       0.19161913750041232       0.19757486706292615       0.20338296515182402       0.20901998767222968       0.21446317714064708       0.21969056842259291       0.22468109099018452       0.22941466664301324       0.23387230167670264       0.23803617256283449       0.24188970431879633       0.24541764089164372       0.24860610704936467       0.25144266145749855       0.25391634080943121       0.25601769506504357       0.25773881402525944       0.25907334562092238       0.26001650641639157       0.26056508491634717       0.26071743831585859       0.26047348334853637       0.25983468186757291       0.25880402174378714       0.25738599358918784       0.25558656372102456       0.25341314367740353       0.25087455648898732       0.24798099980930643       0.24474400591512599       0.24117639851320891       0.23729224623431466       0.23310681266138494       0.22863650272707481       0.22389880532512796       0.21891223200841617       0.21369625169068254       0.20827122132545225       0.20265831260021896       0.19687943475288941       0.19095715368683536       0.18491460762748568       0.17877541962449628       0.17256360725714670       0.16630348994539446       0.16001959430429161
0.14440000266296477       0.14440000402385345       0.14440000604142539       0.14440000901274738       0.14440001335966293       0.14440001967679317       0.14440002879609898       0.14440004187294542       0.14440006049979182       0.14440008685498817       0.14440012389568077       0.14440017560548740       0.14440024730933787       0.14440034606960880       0.14440048117928750       0.14440066476922031       0.14440091254732479       0.14440124468772056       0.14440168688675842       0.14440227160056793       0.14440303947463420       0.14440404096969450       0.14440533817956994       0.14440700682514074       0.14440913839435701       0.14441184238093516       0.14441524855440643       0.14441950917190999       0.14442480101830846       0.14443132713694470       0.14443931809009672       0.14444903256771527       0.14446075714742532       0.14447480500033938       0.14449151333835369       0.12511123941159280       0.12513435489158109       0.12516123851808250       0.12519226694621541       0.12522780380521831       0.12526818706986623       0.12531371494738155       0.12536463059278510       0.12542110607869666       0.12548322615513535       0.12555097243351204       0.12562420870887278       0.12636453593463584       0.13265261951755380       0.13899442739495732       0.14536457230617816       0.15173742172689647       0.15808720313914235       0.16438811472592632       0.17061444111497412       0.17674067354587644       0.18274163357648401       0.18859259919227445       0.19426943195226284       0.19974870361223956       0.20500782052481312       0.21002514403765435       0.21478010510484111       0.21925331139550261       0.22342664532864484       0.22728335167788194       0.23080811366501083       0.23398711678313380       0.23680809994142379       0.23926039388571163       0.24133494720225465       0.24302434053738889       0.24432278994632173       0.24522614050625946       0.24573185148255652       0.24583897441637384       0.24554812550797792       0.24486145360546832       0.24378260498269869       0.24231668591412797       0.24047022384236338       0.23825112770157397       0.23566864772226262       0.23273333481469152       0.22945699942235842       0.22585266956360933       0.22193454764607137       0.21771796554924469       0.21321933742633734       0.20845610967542463       0.20344670756801986       0.19821047809404946       0.19276762867869660       0.18713916154068405       0.18134680358536615       0.17541293185206164       0.16936049465684805       0.16321292868421322       0.15699407237950544       0.15072807607640454       0.14443930935831789
0.12960000509082537       0.12960000769245475       0.12960001154947440       0.12960001722979100       0.12960002553984842       0.12960003761639202       0.12960005504989264       0.12960008004907742       0.12960011565827245       0.12960016604185895       0.12960023685305361       0.12960033570739257       0.12960047278461648       0.12960066158596650       0.12960091987697259       0.12960127084833825       0.12960174452910270       0.12960237948640410       0.12960322484430500       0.12960434264962864       0.12960581060490048       0.12960772517659655       0.12961020507031729       0.12961339504269687       0.12961746999249085       0.12962263924032266       0.12962915086836596       0.12963729594865964       0.12964741244322436       0.12965988851277371       0.12967516492634298       0.12969373622502112       0.12971615026314229       0.12974300573417166       0.12517494729066650       0.12521265789253916       0.12525684806928383       0.12530824186284731       0.12536755932993049       0.12543549562548273       0.12551269686046787       0.12559973312167949       0.12569706925187049       0.12580503420460332       0.12592378999763962       0.12605330147726423       0.12619330825861852       0.12634330030886357       0.12650249867691557       0.12666984283406238       0.13144398596600940       0.13790235156645703       0.14433921050748452       0.15072774070750578       0.15704110736770022       0.16325260458812726       0.16933580479997551       0.17526471418529874       0.18101393181010220       0.18655880982124939       0.19187561177938434       0.19694166604137772       0.20173551108272617       0.20623702977096997       0.21042756986478228       0.21429004841000429       0.21780903821488873       0.22097083518581956       0.22376350595948866       0.22617691594182185       0.22820273852045109       0.22983444682010920       0.23106728988665423       0.23189825558914523       0.23232602280179226       0.23235090555873522       0.23197479186367273       0.23120107969141157       0.23003461245541462       0.22848161585679322       0.22654963760288011       0.22424749101694466       0.22158520308449092       0.21857396702391665       0.21522609905465936       0.21155499868407099       0.20757511155922104       0.20330189373964974       0.19875177614381176       0.19394212790214369       0.18889121740530262       0.18361816995555161       0.17814292109855420       0.17248616491688001       0.16666929679019352       0.16071435035623893       0.15464392862890847       0.14848112943470676       0.14224946550917666       0.13597277974531219       0.12967515620414033
0.11560000927608818       0.11560001401656596       0.11560002104451396       0.11560003139472558       0.11560004653663737       0.11560006854153443       0.11560010030744358       0.11560014585892799       0.11560021074311151       0.11560030254799133       0.11560043157439995       0.11560061169874883       0.11560086146973472       0.11560120548822292       0.11560167612511939       0.11560231563664086       0.11560317873926408       0.11560433570689624       0.11560587604941498       0.11560791282350305       0.11561058761239232       0.11561407618946178       0.11561859485041689       0.11562440735904116       0.11563183240164415       0.11564125138526746       0.11565311634510206       0.11566795764898000       0.11568639110385054       0.11570912398464439       0.11573695942490411       0.11577079853724172       0.11581163957733527       0.11586057343579904       0.12531877474617312       0.12538748794254848       0.12546800769407068       0.12556165329117910       0.12566973676272211       0.12579352476359895       0.12593419458474131       0.12609278499201190       0.12627014298412884       0.12646686795356227       0.12668325511592202       0.12691924041696404       0.12717434940454395       0.12744765273824027       0.12773773107664271       0.12804265201045203       0.12835996148402720       0.12868669176275144       0.13215271135256240       0.13869228272774980       0.14515569358922620       0.15151417435040945       0.15773914413793319       0.16380241673800527       0.16967641487052409       0.17533438826188902       0.18075063047305093       0.18590068914170932       0.19076156424590368       0.19531188920537298       0.19953209010562109       0.20340451903960871       0.20691355847941664       0.21004569466714876       0.21278955919193973       0.21513593913247520       0.21707775732381970       0.21861002538784566       0.21972977308932473       0.22043595829681742       0.22072936230487508       0.22061247549369137       0.22008937826282499       0.21916562189171490       0.21784811348059893       0.21614500845203480       0.21406561329470766       0.21162030036126944       0.20882043564481442       0.20567831960536409       0.20220714034322115       0.19842093775633382       0.19433457679960897       0.18996372760010632       0.18532484997701792       0.18043517986311250       0.17531271521028985       0.16997619916496792       0.16444509859383197       0.15873957639954639       0.15288045646186307       0.14688918044639354       0.14078775611853284       0.13459869716511380       0.12834495484746775       0.12517079858159394       0.12513695946150943
0.10240001610999519       0.10240002434289193       0.10240003654849077       0.10240005452394120       0.10240008082124748       0.10240011903765801       0.10240017420624262       0.10240025331655264       0.10240036600240564       0.10240052544205071       0.10240074952518041       0.10240106235127754       0.10240149613429010       0.10240209359910633       0.10240291096502271       0.10240402161938218       0.10240552058954759       0.10240752992182889       0.10241020507008811       0.10241374238246483       0.10241838774981225       0.10242444644179786       0.10243229410414499       0.10244238882147889       0.10245528406363827       0.10247164222899841       0.10249224837746490       0.10251802361104112       0.10255003741580880       0.10258951813239517       0.10263786058128162       0.10269662974545141       0.10276755931848372       0.12545254387518073       0.12555362342861184       0.12567295921606556       0.12581279971920922       0.12597543618007856       0.12616314722934008       0.12637813269568232       0.12662243720733926       0.12689786481287463       0.12720588651444439       0.12754754329074100       0.12792334784950948       0.12833318894627782       0.12877624258910311       0.12925089477111087       0.12975468048944205       0.13028424368443792       0.13083532234124493       0.13140276232692355       0.13198056259631460       0.13256195321499425       0.13540849602694080       0.14200697888552485       0.14846343714674001       0.15474610474289704       0.16082385074681801       0.16666649194732433       0.17224510519106606       0.17753233046817177       0.18250265562087353       0.18713267390787744       0.19140130646051293       0.19528998288834451       0.19878277487300683       0.20186647944631450       0.20453065068008672       0.20676758060651781       0.20857223222110624       0.20994212928101672       0.21087720919817424       0.21137964655512975       0.21145365558381390       0.21110528031141032       0.21034218099139679       0.20917342492701346       0.20760928890976774       0.20566107930817895       0.20334097443733548       0.20066189231125728       0.19763738532178934       0.19428156188860957       0.19060903376282598       0.18663488650427090       0.18237466973471833       0.17784440312141009       0.17306059367411195       0.16804025983375992       0.16280095796628716       0.15736080721488105       0.15173850916368448       0.14595335937817178       0.14002524856437415       0.13397465178611478       0.12782260485718819       0.12545254398626413       0.12536755941146752       0.12529662982271755       0.12523786064502349
9.0000026667347702E-002   9.0000040295503361E-002   9.0000060499789425E-002   9.0000090255080240E-002   9.0000133785783337E-002   9.0000197046529631E-002   9.0000288368707340E-002   9.0000419322325970E-002   9.0000605854526586E-002   9.0000869779651771E-002   9.0001240711034824E-002   9.0001758541257096E-002   9.0002476595012454E-002   9.0003465596062621E-002   9.0004818605859530E-002   9.0006657104626353E-002   9.0009138393946433E-002   9.0012464500659500E-002   9.0016892752106739E-002   9.0022748169127434E-002   9.0030437782068845E-002   9.0040466912772205E-002   9.0053457378629340E-002   9.0070167460565648E-002   9.0091513333449169E-002   9.0118591484750571E-002   9.0152701447170289E-002   9.0195367947884297E-002   9.0248361338586658E-002   9.0313714927561003E-002   9.0393737602078500E-002   9.0491019924393595E-002   9.0608431728363345E-002  0.12574910915925930       0.12591642911059131       0.12611396914188805       0.12634545123087190       0.12661466813777336       0.12692539174686945       0.12728126349922533       0.12768566792805056       0.12814159132797157       0.12865146869212035       0.12921702318315909       0.12983910350132827       0.13051752550042547       0.13125092520241072       0.13203663089430867       0.13287056218448312       0.13374716368879785       0.13465938036887251       0.13559868043706261       0.13655513018706483       0.13751752314761181       0.13847356366378968       0.13941010249004923       0.14212587615250544       0.14874747582702447       0.15513998146872079       0.16126790649722339       0.16709735842224616       0.17259648535832450       0.17773589427793665       0.18248902669965711       0.18683247882830895       0.19074625517618024       0.19421394730069408       0.19722283235675750       0.19976388951238391       0.20183173572526436       0.20342448573012267       0.20454354415310164       0.20519334028109362       0.20538101803312214       0.20511609501001474       0.20441010508593857       0.20327623884709542       0.20172899532157412       0.19978385696410692       0.19745699787803100       0.19476503291576086       0.19172481275300796       0.18835326743691599       0.18466729841131335       0.18068371675242423       0.17641922340949828       0.17189042571103866       0.16711388331098814       0.16210617612140960       0.15688398659126099       0.15146418890296273       0.14586393820911359       0.14010075384810508       0.13419259148066842       0.12815790020061255       0.12611396940322525       0.12591642933228803       0.12574910934590414       0.12560843188433099       0.12549102005377644       0.12539373770863874
7.8400042074416643E-002   7.8400063576243864E-002   7.8400095453563051E-002   7.8400142399983233E-002   7.8400211080564788E-002   7.8400310890228725E-002   7.8400454973825556E-002   7.8400661585941764E-002   7.8400955887184542E-002   7.8401372295140298E-002   7.8401957532255678E-002   7.8402774539064413E-002   7.8403907448620358E-002   7.8405467845362425E-002   7.8407602557027875E-002   7.8410503249079735E-002   7.8414418104144068E-002   7.8419665870134908E-002   7.8426652545350611E-002   7.8435890931528016E-002   7.8448023220931265E-002   7.8463846685259755E-002   7.8484342397103266E-002   7.8510706734432237E-002   7.8544385192430441E-002   7.8587107754541100E-002   7.8640924758874034E-002   7.8708241844183374E-002   7.8791852183372438E-002   7.8894963829175491E-002   7.9021219629153067E-002   7.9174706843657475E-002  0.12595995335390794       0.12618190721406569       0.12644589631893749       0.12675756516426476       0.12712278610171437       0.12754754316016645       0.12803778743155225       0.12859926420107212       0.12923731341754488       0.12995664670877655       0.13076110588646139       0.13165340967149250       0.13263489710130008       0.13370527763937073       0.13486239926896557       0.13610204669395543       0.13741778207483266       0.13880084040205440       0.14024009058600503       0.14172207159538058       0.14323111052124599       0.14474952634935892       0.14625791960568452       0.14773554406336403       0.14916075256744118       0.15051150497861621       0.15334129185938006       0.15988555115607117       0.16608106918252655       0.17188943875111407       0.17727560321489239       0.18220840454189749       0.18666104601225747       0.19061145239608940       0.19404251457266500       0.19694221037350584       0.19930359870731709       0.20112468945511658       0.20240819690095607       0.20316118928937926       0.20339465120864159       0.20312297867146392       0.20236342884880626       0.20113554732523506       0.19946059548096953       0.19736099923287731       0.19485983801723009       0.19198038975679199       0.18874574384731807       0.18517849016757215       0.18130048800883858       0.17713271486673651       0.17269519144354259       0.16800697613712551       0.16308621985999461       0.15795027030573752       0.15261581377774150       0.14709904238881633       0.14141583476417310       0.13558193923879891       0.12961314981873862       0.12754754376163910       0.12712278661807830       0.12675756560371237       0.12644589668980064       0.12618190752454120       0.12595995361183709       0.12577470705636246       0.12562121980333069
6.7600063271808619E-002   6.7600095606410268E-002   6.7600143543750976E-002   6.7600214142113563E-002   6.7600317424463582E-002   6.7600467518950422E-002   6.7600684192894361E-002   6.7600994897673169E-002   6.7601437469988007E-002   6.7602063667251563E-002   6.7602943751013375E-002   6.7604172371698440E-002   6.7605876049194963E-002   6.7608222584980351E-002   6.7611432779655881E-002   6.7615794861115089E-002   6.7621682048164544E-002   6.7629573676193794E-002   6.7640080288341176E-002   6.7653973039514342E-002   6.7672217663012388E-002   6.7696013101684466E-002   6.7726834699452176E-002   6.7766481577977891E-002   6.7817127483128750E-002   6.7881373976194731E-002   6.7962304370033741E-002   6.8063536281069564E-002   6.8189270102258365E-002   6.8344330125721178E-002   6.8534194491070580E-002   6.8765009649009001E-002  0.12644358465906014       0.12677736043990936       0.12717434911750483       0.12764303892483203       0.12819226074663562       0.12883101340911990       0.12956824620817606       0.13041259894654852       0.13137210187963372       0.13245384038944377       0.13366359182234189       0.13500544461251343       0.13648141241584699       0.13809105832263771       0.13983114611512473       0.14169533680041477       0.14367394910820533       0.14575380215260619       0.14791815691914983       0.15014677061019086       0.15241607419071854       0.15469947882284263       0.15696781143694272       0.15918987370735282       0.16133311248679319       0.16336438365578351       0.16525078573151300       0.16696053482185286       0.16984237646029618       0.17607620900642629       0.18180186530386505       0.18698185915608431       0.19158472578155569       0.19558552859471265       0.19896619446635952       0.20171566523488407       0.20382986116317139       0.20531146019257587       0.20616950477063994       0.20641885527553511       0.20607951522660056       0.20517585823019405       0.20373578973194817       0.20178987800779677       0.19937048841789456       0.19651095287097875       0.19324480290138971       0.18960509002643386       0.18562381146421503       0.18133145321813851       0.17675665634444254       0.17192600626247553       0.16686393955022547       0.16159275803639336       0.15613273633108143       0.15050230633054459       0.14471830071374711       0.13879623697799787       0.13275062403850799       0.13041260045531633       0.12956824752146096       0.12883101453844634       0.12819226170648584       0.12764303973163671       0.12717434978865830       0.12677736099288958       0.12644358511070908       0.12616501001500047       0.12593419478556842
5.7600090689343936E-002   5.7600137035479414E-002   5.7600205745479659E-002   5.7600306936189019E-002   5.7600454973818771E-002   5.7600670108660941E-002   5.7600980673797035E-002   5.7601426016094116E-002   5.7602060368008662E-002   5.7602957914962373E-002   5.7604219364900372E-002   5.7605980383060022E-002   5.7608422314117141E-002   5.7611785672862584E-002   5.7616386939288396E-002   5.7622639238904545E-002   5.7631077517190411E-002   5.7642388819634405E-002   5.7657448255632668E-002   5.7677361144124716E-002   5.7703511698934354E-002   5.7737618399919519E-002   5.7781795900615378E-002   5.7838622934558367E-002   5.7911215194958010E-002   5.8003301575164097E-002   5.8119301476855526E-002   5.8264400134297567E-002   5.8444618092027001E-002   5.8666870147132601E-002   5.8939008275144207E-002  0.12666984236129836       0.12706913202758505       0.12754754255873932       0.12811655796857346       0.12878834469055295       0.12957556029292852       0.13049110306172368       0.13154780029224128       0.13275803567659800       0.13413331922678706       0.13568380664124849       0.13741777877267869       0.13934109570530670       0.14145664368044450       0.14376379646848556       0.14625791550539260       0.14892991492417082       0.15176591826945229       0.15474703298074163       0.15784926652504511       0.16104360429292272       0.16429626408131670       0.16756913531614800       0.17082040337001483       0.17400535075890672       0.17707731809568353       0.17998879893770928       0.18269263462256427       0.18514326836485551       0.18729801277080707       0.18911828191636873       0.19162545165765310       0.19712517400504634       0.20192234773248155       0.20598833526695179       0.20930381659447786       0.21185898043869889       0.21365344805062614       0.21469593522386082       0.21500366950031743       0.21460158990860473       0.21352136540618841       0.21180027500910836       0.20947999705770604       0.20660535700778734       0.20322308254117569       0.19938061180276581       0.19512499547906825       0.19050192663657636       0.18555492421898567       0.18032468738593530       0.17484862899352197       0.16916058796883279       0.16329071255609640       0.15726549976422252       0.15110797107678528       0.14483796074014574       0.13847249076116075       0.13568381139249000       0.13413332347767895       0.13275803941412267       0.13154780352208562       0.13049110580592571       0.12957556258651726       0.12878834657765839       0.12811655949848130       0.12754754378229008       0.12706913299420086       0.12666984311678572       0.12633900886029545
4.8400123895672262E-002   4.8400187211662518E-002   4.8400281080151472E-002   4.8400419322313454E-002   4.8400621564615352E-002   4.8400915472088538E-002   4.8401339752105109E-002   4.8401948158571885E-002   4.8402814781413388E-002   4.8404040969390862E-002   4.8405764305134845E-002   4.8408170128343551E-002   4.8411506183892172E-002   4.8416101052181984E-002   4.8422387093822211E-002   4.8430928702134869E-002   4.8442456695337602E-002   4.8457909683741189E-002   4.8478483201964351E-002   4.8505687286337744E-002   4.8541412986528386E-002   4.8588008010975278E-002   4.8648361302137788E-002   4.8725995806814630E-002   4.8825168040768654E-002   4.8950972244671820E-002   4.9109445998704988E-002   4.9307673126833401E-002   4.9553878613870159E-002   4.9857509129757983E-002   5.0229291673307933E-002  0.12728126189508368       0.12782675293316131       0.12848033520301569       0.12925769763491310       0.13017546145661030       0.13125091887099583       0.13250169094956663       0.13394530179131384       0.13559866947603247       0.13747751851071410       0.13959572320639158       0.14196459654582377       0.14459214436304754       0.14748230975256946       0.15063423721545777       0.15404158976527479       0.15769195469266156       0.16156637458548137       0.16563903924123535       0.16987717109599915       0.17424113164803584       0.17868476912626460       0.18315601854109306       0.18759775460250994       0.19194888628071549       0.19614566961764526       0.20012320345729295       0.20381706177426728       0.20716500696166892       0.21010872144963272       0.21259549091238095       0.21457977147540666       0.21602457595379798       0.21735394720654283       0.22149888226411688       0.22473541635813565       0.22705524836325638       0.22846248192927279       0.22897314550469197       0.22861437988494770       0.22742333070302123       0.22544579533396344       0.22273468298369711       0.21934835282348358       0.21534889767450241       0.21080043992476216       0.20576750227125606       0.20031350891478431       0.19449946354069483       0.18838283945432097       0.18201670532318381       0.17544909783454371       0.16872264089038452       0.16187440033209580       0.15493595409689770       0.14793365050213397       0.14459216282917839       0.14196461381648140       0.13959573902109362       0.13747753268736432       0.13559868191640753       0.13394531247874128       0.13250169993985869       0.13125092627846560       0.13017546743738126       0.12925770236972911       0.12848033888142699       0.12782675574042038       0.12728126400246137       0.12682929323195863
4.0000161328047582E-002   4.0000243773583466E-002   4.0000366002389244E-002   4.0000546011405611E-002   4.0000809356808401E-002   4.0001192062014822E-002   4.0001744528985202E-002   4.0002536752196692E-002   4.0003665206228001E-002   4.0005261860156696E-002   4.0007505864201015E-002   4.0010638554399139E-002   4.0014982526320797E-002   4.0020965633735750E-002   4.0029150865514646E-002   4.0040273133982354E-002   4.0055284057896517E-002   4.0075405827752347E-002   4.0102195182077756E-002   4.0137618380361006E-002   4.0184137809355848E-002   4.0244810482614281E-002   4.0323398167572182E-002   4.0424488183426810E-002   4.0553623045826340E-002   4.0717436089846890E-002   4.0923788992246829E-002   4.1181905764674363E-002   4.1502496346977800E-002   4.1897861460181637E-002  0.12738196896959916       0.12797049076818839       0.12868078824481657       0.12953183389076911       0.13054405666527355       0.13173909952734797       0.13313947917081603       0.13476814056578210       0.13664790246283309       0.13880079454715705       0.14124729235983602       0.14400546227498090       0.14709003549340297       0.15051143686469889       0.15427480098709076       0.15837901401077947       0.16281582440852235       0.16756906920008052       0.17261406328519227       0.17791719828784897       0.18343579339061172       0.18911823393586488       0.19490442415881451       0.20072656855148605       0.20651028248676151       0.21217601748522474       0.21764077066589177       0.22282003237490966       0.22762991167856453       0.23198936727350133       0.23582246226539916       0.23906055591066308       0.24164434431328746       0.24352566547931900       0.24466899203195872       0.24505254696887652       0.24466899350998375       0.24615633924811081       0.24712705696842077       0.24703821374724569       0.24592812526417249       0.24384769725093688       0.24085865357486508       0.23703152283029241       0.23244346792837944       0.22717604661026272       0.22131298973063016       0.21493807882673452       0.20813319541057249       0.20097660231241879       0.19354150311943330       0.18589491022869920       0.17809683621447323       0.17019980798500708       0.16281589873294880       0.15837908877780438       0.15427487452012334       0.15051150755515522       0.14709010191079580       0.14400552325724617       0.14124734707437814       0.13880084251762301       0.13664794356163498       0.13476817497694502       0.13313950733107913       0.13173912205515032       0.13054407428725426       0.12953184737398127       0.12868079834049323       0.12797049817018785       0.12738197428811709
3.2400200224622859E-002   3.2400302547973207E-002   3.2400454246434264E-002   3.2400677656051841E-002   3.2401004494656362E-002   3.2401479470996246E-002   3.2402165139063618E-002   3.2403148369169035E-002   3.2404548896138294E-002   3.2406530507100281E-002   3.2409315545801516E-002   3.2413203534940233E-002   3.2418594848577169E-002   3.2426020496905121E-002   3.2436179206475943E-002   3.2449983078193682E-002   3.2468613167364713E-002   3.2493586335695879E-002   3.2526834651834105E-002   3.2570798439505069E-002   3.2628533763369202E-002   3.2703834674924243E-002   3.2801369888552465E-002   3.2926832700144147E-002   3.3087101884532358E-002   3.3290410011789014E-002   3.3546514120403041E-002   3.3866862011126264E-002   3.4264745635402549E-002   3.4755431228801599E-002  0.12795625409129133       0.12868666437667123       0.12956820907952174       0.13062443477225522       0.13188069572684563       0.13336385302992582       0.13510185232031030       0.13712317096169524       0.13945612987240830       0.14212807085841844       0.14516440703771688       0.14858756160758216       0.15241581849173877       0.15666211691209439       0.16133283017093458       0.16642657634807073       0.17193311462046493       0.17783238490794590       0.18409374999252057       0.19067549769867967       0.19752465584623269       0.20457716436563328       0.21175843728302471       0.21898433255714128       0.22616253053926480       0.23319430290990928       0.23997663428957478       0.24640463942954829       0.25237420113399039       0.25778473900670262       0.26254200781939985       0.26656081764858308       0.26976756655786344       0.27210248083302191       0.27352146758085377       0.27399749949238977       0.27352147101444790       0.27210248803704856       0.26976757821958219       0.26693848602558157       0.26504768610104706       0.26204309046897561       0.25800297247983922       0.25301616932163640       0.24717938317457613       0.24059439808964392       0.23336532039191740       0.22559594378601516       0.21738732906935579       0.20883567332384417       0.20003052572225002       0.19105338781239789       0.18409401229017683       0.17783266254223887       0.17193340171366206       0.16642686634285278       0.16133311628193359       0.15666239260536313       0.15241607793580841       0.14858780004436428       0.14516462103434602       0.14212825841958013       0.13945629041311106       0.13712330515902499       0.13510196187636830       0.13336394038511118       0.13188076376266017       0.13062448653700137       0.12956824756067056       0.12868669233265265       0.12795627394512812
2.5600236853035797E-002   2.5600357895072583E-002   2.5600537344735188E-002   2.5600801624149745E-002   2.5601188253498611E-002   2.5601750120396137E-002   2.5602561222247522E-002   2.5603724321118456E-002   2.5605381055706498E-002   2.5607725175777134E-002   2.5611019699832090E-002   2.5615618944116285E-002   2.5621996525511736E-002   2.5630780594901079E-002   2.5642797700479496E-002   2.5659126797818132E-002   2.5681164996749578E-002   2.5710706641695825E-002   2.5750037235253688E-002   2.5802043504721268E-002   2.5870340545672992E-002   2.5959416423236091E-002   2.6074793840169173E-002   2.6223207466437561E-002   2.6412794252322330E-002   2.6653292514553343E-002   2.6956243809301162E-002   2.7335189626856181E-002   2.7805852827216131E-002  0.12778629158027374       0.12849701150673146       0.12936101989437115       0.13040380447342231       0.13165321847835046       0.13313925381400282       0.13489368528862833       0.13694957125857754       0.13934059978984431       0.14210027465551511       0.14526094214515994       0.14885266764731231       0.15290198004667671       0.15743051179701870       0.16245357261219198       0.16797870447938482       0.17400427447918820       0.18051816899317294       0.18749665759215445       0.19490349658488038       0.20268934033739661       0.21079152268403337       0.21913426089243171       0.22762932081998047       0.23617716448494941       0.24466858092897445       0.25298677888677645       0.26100989654489753       0.26861386086595501       0.27567550796205009       0.28207585819223152       0.28770342629397749       0.29245743898670135       0.29625083085669285       0.29901289432951411       0.30069147112671524       0.30125459033107932       0.30069148118270767       0.29901291577406758       0.29625086640461085       0.29245749281741473       0.28770350413393947       0.28207596735151097       0.27567565727106691       0.26861406045745728       0.26141283202882265       0.25358711382185056       0.24507167160364493       0.23617767326854797       0.22762992794123196       0.21913496867045079       0.21079232868078765       0.20269023680235077       0.19490447035806988       0.18749769053568449       0.18051923895077060       0.17400535668611400       0.16797977327511443       0.16245460325964003       0.15743148219465727       0.15290287213733011       0.14885346837606020       0.14526164388869670       0.14210087512266856       0.13934110146337839       0.13694998050018808       0.13489401125544004       0.13313950733496038       0.13165341101692019       0.13040394726669374       0.12936112331689281       0.12849708466828974
1.9600267051051078E-002   1.9600403525565833E-002   1.9600605854494330E-002   1.9600903828700059E-002   1.9601339752069253E-002   1.9601973255217606E-002   1.9602887769979396E-002   1.9604199160243412E-002   1.9606067123156472E-002   1.9608710110881496E-002   1.9612424675757394E-002   1.9617610307817505E-002   1.9624801007729231E-002   1.9634705011844542E-002   1.9648254247088569E-002   1.9666665225573487E-002   1.9691513171248998E-002   1.9724821178023395E-002   1.9769166100571754E-002   1.9827802641714746E-002   1.9904806687645611E-002   2.0005238317951247E-002   2.0135324047436294E-002   2.0302656713574129E-002   2.0516409989936955E-002   2.0787562780657957E-002   2.1129126752943005E-002   2.1556368038580690E-002   2.2087011755971657E-002  0.12814141557924572       0.12894269625300492       0.12991679089628344       0.13109243336353579       0.13250102506250588       0.13417637970872140       0.13615432275993203       0.13847212893305044       0.14116778542589326       0.14427907433837805       0.14784247530656203       0.15189189840051684       0.15645726762815754       0.16156298652149881       0.16722632870953774       0.17345580743285927       0.18024958787169024       0.18759401414209367       0.19546232807731798       0.20381365873801938       0.21259235940366802       0.22172776219513290       0.23113440931199147       0.24071280426256192       0.25035070684695254       0.25992497275735360       0.26930391350896044       0.27835012628165490       0.28692371759258012       0.29488582108478140       0.30210228965080366       0.30844742703491557       0.31380761516196914       0.31808469157788616       0.32119893699348706       0.32309154596974277       0.32372647375495917       0.32309157820712969       0.32119900622754477       0.31808480750032536       0.31380779268357817       0.30844768657052418       0.30210265724131946       0.29488632816602900       0.28692440021773546       0.27835102363600922       0.26930506562811951       0.25992641747171169       0.25035247611604111       0.24071492021228638       0.23113688041744596       0.22173058013025151       0.21259549707938688       0.20381706995798685       0.19546594905788378       0.18759776689517943       0.18025338517650460       0.17345955887597761       0.16722994710137110       0.16156639393575650       0.15646040037235026       0.15189471039707306       0.14784493961062814       0.14428118279110599       0.14116954669031273       0.13847356534221178       0.13615546650010452       0.13417726886075459       0.13250169994701289       0.13109293350750814       0.12991715279156094       0.12894295193910210
1.4400286987837881E-002   1.4400433650903523E-002   1.4400651084765761E-002   1.4400971304333769E-002   1.4401439771701254E-002   1.4402120569218843E-002   1.4403103357330716E-002   1.4404512649730737E-002   1.4406520065686788E-002   1.4409360365700565E-002   1.4413352240702044E-002   1.4418925003440289E-002   1.4426652517749732E-002   1.4437295887809657E-002   1.4451856602323910E-002   1.4471641970176193E-002   1.4498344772094161E-002   1.4534139059659917E-002   1.4581793926337018E-002   1.4644806818800983E-002   1.4727557512089390E-002   1.4835483200130071E-002   1.4975274218276952E-002   1.5155088687751972E-002   1.5384782836091919E-002   1.5676151902166823E-002   1.6043174400142243E-002   1.6502250141543447E-002  0.12767241987668962       0.12837555182829155       0.12923647789836459       0.13028306011731980       0.13154616618614978       0.13305953198091416       0.13485948890234237       0.13698453522392184       0.13947473336275074       0.14237091946716834       0.14571371800550556       0.14954236216255970       0.15389333067433261       0.15879882296253817       0.16428510660063139       0.17037078362138053       0.17706503419684166       0.18436590693246194       0.19225873353809189       0.20071475112848655       0.20969001712610366       0.21912469911295976       0.22894281464024233       0.23905248383890834       0.24934674084603203       0.25970492903330117       0.26999468056361214       0.28007445397063574       0.28979657557662625       0.29901070315965789       0.30756760499365227       0.31532312586244332       0.32214219542802680       0.32790272470834159       0.33249923433097234       0.33584606416710272       0.33788002789815375       0.33856239748205608       0.33788013031958619       0.33584628468656530       0.33249960486763347       0.32790329436034393       0.32214303140159573       0.31532431386499943       0.30756924846705708       0.29901292072012331       0.28979949613263578       0.28007820922764198       0.26999939499080394       0.25971070782947087       0.24935365693167891       0.23906056532705933       0.22895203449615534       0.21913496871416446       0.20970118513027405       0.20072660845851467       0.19227102447968669       0.18437834544515519       0.17707732373078691       0.17038263816971436       0.16429627051566706       0.15880908726562207       0.15390254415189941       0.14955043634957740       0.14572062605223057       0.14237668969969006       0.13947943894681841       0.13698828164698873       0.13486240098984967       0.13306174190878961       0.13154780353145235       0.13028424450613132       0.12923731435758903
1.0000293958861909E-002   1.0000444184418153E-002   1.0000666899813453E-002   1.0000994897605057E-002   1.0001474744164513E-002   1.0002172078395833E-002   1.0003178738556976E-002   1.0004622262658809E-002   1.0006678438281803E-002   1.0009587727484077E-002   1.0013676560414049E-002   1.0019384673894240E-002   1.0027299862541769E-002   1.0038201700504451E-002   1.0053115968142210E-002   1.0073381661851333E-002   1.0100732553534957E-002   1.0137395270629058E-002   1.0186205754962829E-002   1.0250745692105061E-002   1.0335500043164662E-002   1.0446036119669334E-002   1.0589203684366943E-002   1.0773354309691251E-002   1.1008576666672142E-002   1.1306942552559766E-002   1.1682756318628451E-002   1.2152797978124538E-002  0.12773654773262802       0.12845637705657395       0.12933768895826214       0.13040898775777954       0.13170185688863292       0.13325082207663247       0.13509307704560222       0.13726804993739203       0.13981679120988236       0.14278116815881681       0.14620285759078430       0.15012213662158097       0.15457648197344515       0.15959900016592554       0.16521672407834539       0.17144882473865078       0.17830479994345483       0.18578271244773478       0.19386755901607092       0.20252985675158458       0.21172453414819456       0.22139021080438626       0.23144894148783066       0.24180648728033893       0.25235315912080086       0.26296525768721524       0.27350710894151320       0.28383366777351909       0.29379363424092625       0.30323299934991765       0.31199891175569622       0.31994373484464500       0.32692914698308739       0.33283012766286701       0.33753866987226583       0.34096706483943962       0.34305061936455239       0.34374968774377040       0.34305092872389015       0.34096773147574788       0.33753979134651008       0.33283185403391613       0.32693168363827785       0.31994734369266004       0.31200390887762675       0.30323974717511593       0.29380252663425127       0.28384510714532335       0.27352147561057755       0.26298287313631491       0.25237424628064609       0.24183113227599076       0.23147706206824206       0.22142153667958447       0.21175860353067871       0.20256603157260111       0.19390505880240402       0.18582066411420997       0.17834229828828996       0.17148499671131240       0.16525078927445466       0.15963032061904608       0.15460459603132184       0.15014677416293004       0.14622393657002919       0.14279877495272883       0.13983114906867417       0.13727948077524157       0.13510196180893050       0.13325756415297493       0.13170685173673111       0.13041260046564007       0.12934024005481548
6.4002869878331103E-003   6.4004336508926094E-003   6.4006510847390129E-003   6.4009713042656518E-003   6.4014397715254322E-003   6.4021205687662449E-003   6.4031033561797917E-003   6.4045126468548833E-003   6.4065200586461580E-003   6.4093603488391809E-003   6.4133522012349026E-003   6.4189249131936790E-003   6.4266523162091011E-003   6.4372954483035228E-003   6.4518556664873135E-003   6.4716400246109000E-003   6.4983408230748028E-003   6.5341312339712273E-003   6.5817787858106248E-003   6.6447782204128820E-003   6.7275047742321962E-003   6.8353882528369219E-003   6.9751073318043907E-003   7.1548023110804054E-003   7.3843030675428542E-003   7.6753672027413530E-003   8.0419213969622969E-003  0.12710029679997656       0.12766944696969565       0.12837113448127122       0.12923006995382072       0.13027398498474518       0.13153361848398101       0.13304259436021368       0.13483716770056889       0.13695581685923539       0.13943866065050256       0.14232668356954115       0.14566075802148171       0.14948046114325611       0.15382269490001019       0.15872013132603377       0.16419951928516432       0.17027990385590663       0.17697082312081833       0.18427055846556079       0.19216452235373174       0.20062387114662580       0.20960442948679373       0.21904600704609695       0.22887217833038745       0.23899058218070701       0.24929378012209316       0.25966069229770167       0.26995860691897400       0.28004573458351789       0.28977425326753492       0.29899376435270952       0.30755505603306393       0.31531404940681401       0.32213578610405808       0.32789830593444508       0.33249625995912419       0.33584410933261027       0.33787877338417593       0.33856161126429785       0.33787964903548023       0.33584599680722765       0.33249943650113717       0.32790319796489698       0.32214297725600993       0.31532428390706008       0.30756923202199599       0.29901291165075805       0.28979949100558294       0.28007820617338408       0.26999939301822240       0.25971070642670591       0.24935365584088270       0.23906056442112375       0.22895203371326117       0.21913496802406460       0.20970118451745029       0.20072660791403246       0.19227102399739834       0.18437834502001099       0.17707732335813556       0.17038263784505145       0.16429627023457632       0.15880908702379296       0.15390254394516972       0.14955043617397817       0.14572062590402488       0.14237668957540225       0.13947943884325339       0.13698828156124190       0.13486240091930832       0.13306174185112757       0.13154780348461884       0.13028424446833548       0.12923731432728142
3.6002670510392946E-003   3.6004035255370872E-003   3.6006058544205913E-003   3.6009038285068498E-003   3.6013397515621678E-003   3.6019732538998600E-003   3.6028877666105874E-003   3.6041991518003694E-003   3.6060671024510452E-003   3.6087100612460163E-003   3.6124245595099136E-003   3.6176100419126377E-003   3.6248004137834403E-003   3.6347037164458792E-003   3.6482514885931312E-003   3.6666594904951658E-003   3.6915015300835793E-003   3.7247981084981064E-003   3.7691214668660331E-003   3.8277183339694241E-003   3.9046512160377540E-003   4.0049584114029528E-003   4.1348320612476985E-003   4.3018124649893573E-003   4.5149956130595319E-003   4.7852494527560957E-003   5.1254328422168302E-003  0.12695060949466327       0.12747824748054548       0.12812839301924736       0.12892380530679251       0.12989003693861842       0.13105544208617753       0.13245109207139080       0.13411057563329346       0.13606965950672714       0.13836578467099206       0.14103737565898414       0.14412294550249846       0.14765998782803999       0.15168366040916728       0.15622528054237067       0.16131067063085280       0.16695841042738285       0.17317806831280691       0.17996849571643614       0.18731627482078600       0.19519440939316035       0.20356134224567995       0.21236037151818118       0.22151952320849733       0.23095192064588502       0.24055667405109588       0.25022029552190095       0.25981862676132195       0.26921924835406397       0.27828432014639448       0.28687378239457451       0.29484882746606073       0.30207553323134589       0.30842853352188188       0.31379458994674081       0.31807592457647249       0.32119317567127947       0.32308784924742096       0.32372415760140733       0.32309016100974636       0.32119815918243000       0.31808431275973603       0.31380751008193497       0.30844752847905155       0.30210257040336802       0.29488628110450521       0.28692437483365207       0.27835100980245114       0.26930505782969588       0.25992641278376988       0.25035247302795838       0.24071491796338104       0.23113687863349353       0.22173057863044043       0.21259549577681303       0.20381706880988157       0.19546594804147785       0.18759776599638417       0.18025338438480951       0.17345955818227055       0.16722994649708695       0.16156639341260531       0.15646039992228294       0.15189471001233343       0.14784493928382617       0.14428118251528571       0.14116954645900534       0.13847356514947090       0.13615546634052433       0.13417726872947278       0.13250169983970025       0.13109293342034808       0.12991715272122054       0.12894295188269775
1.6002368530110035E-003   1.6003578950078269E-003   1.6005373445618029E-003   1.6008016236839467E-003   1.6011882522588177E-003   1.6017501171491644E-003   1.6025612139107476E-003   1.6037243001739904E-003   1.6053810042727355E-003   1.6077250523822114E-003   1.6110194107059111E-003   1.6156182825888261E-003   1.6219950476315434E-003   1.6307773713157630E-003   1.6427908355687560E-003   1.6591125246968870E-003   1.6811360241845228E-003   1.7106492252597426E-003   1.7499261477502870E-003   1.8018336721596551E-003   1.8699535922952484E-003   1.9587197612819080E-003   2.0735693283362925E-003   2.2211061998434162E-003   2.4092739780971618E-003   2.6475348158702815E-003  0.12634704993800278       0.12672085702876859       0.12718403917330873       0.12775387935182980       0.12844999327092929       0.12929443116531483       0.13031173576010410       0.13152893872875557       0.13297547202524010       0.13468296430101143       0.13668488772899584       0.13901601887356757       0.14171168074897619       0.14480674339977556       0.14833437766555738       0.15232458023356213       0.15680251503341111       0.16178674263392151       0.16728743119593401       0.17330465582806390       0.17982689544312672       0.18682982708128740       0.19427549902392777       0.20211193946422140       0.21027323138248311       0.21868006057164460       0.22724072508791615       0.23585258150007263       0.24440389509651378       0.25277605537269365       0.26084611201877267       0.26848957818283831       0.27558343613582098       0.28200926618960565       0.28765640464449993       0.29242502322665409       0.29622901357680165       0.29899855803567243       0.30068227351521520       0.30124882887339782       0.30068795715625907       0.29901081078710096       0.29624963822842337       0.29245679256998625       0.28770311369516038       0.28207575415282121       0.27567554295364632       0.26861399996178048       0.26101012554605174       0.25298709531357921       0.24466898812727819       0.23617766766001058       0.22762992426162565       0.21913496598934229       0.21079232655099522       0.20269023501207084       0.19490446880676515       0.18749768917376572       0.18051923775117582       0.17400535563136429       0.16797977235165479       0.16245460245550333       0.15743148149859176       0.15290287153854276       0.14885346786420095       0.14526164345392259       0.14210087475572158       0.13934110115565118       0.13694998024376923       0.13489401104313761       0.13313950716030554       0.13165341087415355       0.13040394715073766       0.12936112322331328       0.12849708459325049
4.0020022457209049E-004   4.0030254783388579E-004   4.0045424605045856E-004   4.0067765500447676E-004   4.0100449184477893E-004   4.0147946359855939E-004   4.0216512002115578E-004   4.0314832126073816E-004   4.0454877839459841E-004   4.0653022449118958E-004   4.0931488344406192E-004   4.1320201921091931E-004   4.1859146205157084E-004   4.2601310970979733E-004   4.3616347421974978E-004   4.4995036785965714E-004   4.6854676870346576E-004   4.9345474876896073E-004   5.2658006000892287E-004   5.7031754040207886E-004   6.2764693214025934E-004   7.0223804121167654E-004   7.9856350649766907E-004   9.2201693392155012E-004   1.0790339744915995E-003   1.2772142729526046E-003  0.12612544320681640       0.12643401393080386       0.12681475213058724       0.12728114742593546       0.12784849557024908       0.12853405329856712       0.12935720179886082       0.13033960475200854       0.13150533310892890       0.13288091298801818       0.13449523843324571       0.13637928148103065       0.13856553247316319       0.14108711727701898       0.14397656623041311       0.14726425020455150       0.15097654672647826       0.15513384548107803       0.15974853855935431       0.16482315858019034       0.17034882271127408       0.17630411288217462       0.18265447733638923       0.18935218511043414       0.19633681356213109       0.20353620901988811       0.21086783783749005       0.21824044075569390       0.22555591406645917       0.23271136002910203       0.23960126859377617       0.24611980610902837       0.25216319034963341       0.25763212424271548       0.26243424545361055       0.26648652986727139       0.26971756896760701       0.27206962858814754       0.27350039245226970       0.27398429951712139       0.27351339887543985       0.27209766807764374       0.26976476770740987       0.26655923415337851       0.26254114121402333       0.25778428730650943       0.25237398699009023       0.24640456215015047       0.23997663889488591       0.23319436079516218       0.22616262772185472       0.21898446269251209       0.21175859758194748       0.20457735323659035       0.19752487155941448       0.19067573767199189       0.18409401048187096       0.17783266098286690       0.17193340035190691       0.16642686515026597       0.16133311523965257       0.15666239169846741       0.15241607715105784       0.14858779936938174       0.14516462045738698       0.14212825792952188       0.13945628999950851       0.13712330481217302       0.13510196158734850       0.13336394014581687       0.13188076356579997       0.13062448637608357       0.12956824742997200       0.12868669222717558       0.12795627386054848
1.6132794605663727E-007   2.4377329659938964E-007   3.6600158648219045E-007   5.4600919659698887E-007   8.0935085197788614E-007   1.1920463049170400E-006   1.7444884930971240E-006   2.5366502498246667E-006   3.6649555715847500E-006   5.2612583885210195E-006   7.5044536303685547E-006   1.0635326208564967E-005   1.4975313369736005E-005   2.0949899302452251E-005   2.9117355814211790E-005   4.0203460170730962E-005   5.5142626068362871E-005   7.5125540925475890E-005   1.0165288683770225E-004   1.3659403538483975E-004   1.8224880094655326E-004   2.4140954512214384E-004   3.1742038025751071E-004   4.1423026405846235E-004   5.3643782605196388E-004  0.12568932822407486       0.12587890643319996       0.12611193698446327       0.12639600656419070       0.12673963157155671       0.12715243548821697       0.12764541806445101       0.12823132736242729       0.12892512517671789       0.12974450689911812       0.13071040198252545       0.13184734729440406       0.13318360164217732       0.13475086495601288       0.13658348739823922       0.13871710471251064       0.14118671240374112       0.14402428164375208       0.14725610731674055       0.15090014448383446       0.15496361755136029       0.15944116761188409       0.16431373906537791       0.16954830855562336       0.17509844724415405       0.18090560427975189       0.18690092503503419       0.19300738461606995       0.19914202731435912       0.20521814802799548       0.21114731710054419       0.21684121781637003       0.22221332035065103       0.22718044727837652       0.23166429086603632       0.23559292491819750       0.23890232201984354       0.24153785041918321       0.24345569250707416       0.24462410522930425       0.24502443483736083       0.24465180403160444       0.24351540636378652       0.24163836708671763       0.23905715754244464       0.23582057817189359       0.23198835061544759       0.22762938035562924       0.22281976693403924       0.21764064859196128       0.21217597233012581       0.20651027926238311       0.20072658936672258       0.19490446007894793       0.18911828049638454       0.18343584819351097       0.17791725975566475       0.17261413004849535       0.16756913983024793       0.16281589734011798       0.15837908756840863       0.15427487346724544       0.15051150664060375       0.14709010112000309       0.14400552257727808       0.14124734649323245       0.13880084202403459       0.13664794314506176       0.13476817462760465       0.13313950703998675       0.13173912181414033       0.13054407408898269       0.12953184721190980       0.12868079820885767       0.12797049806395458       0.12738197420293110
4.0012389547736734E-004   4.0018721110342487E-004   4.0028107857461573E-004   4.0041931795647121E-004   4.0062155284164392E-004   4.0091544099963872E-004   4.0133967192319028E-004   4.0194795662743286E-004   4.0281428479543559E-004   4.0403977699144685E-004   4.0576150991568919E-004   4.0816373103885311E-004   4.1149188965486800E-004   4.1606987008634930E-004   4.2232068457095082E-004   4.3079062237137645E-004   4.4217640432349381E-004   4.5735420720409436E-004   4.7740847166086441E-004   5.0365721923510405E-004   5.3766930971753217E-004   5.8126795784858886E-004   6.3651438699740301E-004   7.0566642347440710E-004   7.9110996628915017E-004  0.12549526740522032       0.12562049666322136       0.12576900730483054       0.12594283457384706       0.12614392527762583       0.12637439660804931       0.12663702484784892       0.12693600033030000       0.12727794497321515       0.12767313025578950       0.12813676336244537       0.12869014012723204       0.12936141271732393       0.13018570617490074       0.13120435560826066       0.13246313039124580       0.13400945540756071       0.13588881024335386       0.13814065236187897       0.14079433276971562       0.14386552093102245       0.14735361252484538       0.15124046217545503       0.15549058750698092       0.16005277040465929       0.16486278167575344       0.16984681621620193       0.17492517168396027       0.18001573822484751       0.18503697352302587       0.18991018560843342       0.19456109943033797       0.19892081020451638       0.20292630595166961       0.20652076651845278       0.20965382283481296       0.21228190338155292       0.21436872365338863       0.21588590627332543       0.21681366697747465       0.21714147131102407       0.21686855905309005       0.21600424434701898       0.21456792324649968       0.21258875050378898       0.21010497843476664       0.20716297864521141       0.20381598996729938       0.20012265217192887       0.19614539488759039       0.19194875523283134       0.18759769678551749       0.18315599757593312       0.17868476669790992       0.17424113873536476       0.16987718330763815       0.16563905440793306       0.16156639155614871       0.15769197275502445       0.15404160838264927       0.15063425591972943       0.14748232811204492       0.14459216198403563       0.14196461308687494       0.13959573839416192       0.13747753215169764       0.13559868146149814       0.13394531209482949       0.13250169961791414       0.13125092601020300       0.13017546721527376       0.12925770218700822       0.12848033873206707       0.12782675561910922       0.12728126390456015       0.12682929315345390
1.6000906889899809E-003   1.6001370344565240E-003   1.6002057425838750E-003   1.6003069281722215E-003   1.6004549521332391E-003   1.6006700513683813E-003   1.6009805259890968E-003   1.6014256437673245E-003   1.6020594523054605E-003   1.6029557162068962E-003   1.6042142104265044E-003   1.6059685860111094E-003   1.6083959543201800E-003   1.6117281700268966E-003   1.6162644736245299E-003   1.6223846045927439E-003   1.6305606287850146E-003   1.6413644568132755E-003   1.6554663275324759E-003   1.6736174616708446E-003   1.6966079164013792E-003   1.7251889424658500E-003   1.7599487803567173E-003   1.8011331300147753E-003  0.12524840804343226       0.12530057520103297       0.12535526827599189       0.12540868378454212       0.12545542764759213       0.12548858401751567       0.12550012735484328       0.12548179216174199       0.12542647763338277       0.12533019107317825       0.12519442606680634       0.12502874138312378       0.12485317776662272       0.12470005410615922       0.12461465594566250       0.12465439490375591       0.12488618732703191       0.12538206018997874       0.12621330165567810       0.12744377238096771       0.12912321384112846       0.13128147381819266       0.13392448546979488       0.13703259120483630       0.14056144055428180       0.14444528572238427       0.14860213360323440       0.15293996227776749       0.15736311826865579       0.16177808466984836       0.16609801893066420       0.17024574532201184       0.17415518385750886       0.17777144492168409       0.18104997751978080       0.18395521529714182       0.18645912884341936       0.18853999266299137       0.19018154485377325       0.19137258898471957       0.19210698421460295       0.19238390335684927       0.19220821078779426       0.19159081657097657       0.19054888972335821       0.18910585136686370       0.18729110847714978       0.18513952474983292       0.18269065333523554       0.17998777578150443       0.17707680297001888       0.17400509843092610       0.17082028373765715       0.16756908115104335       0.16429624153298258       0.16104359674002425       0.15784926599423801       0.15474703571897050       0.15176592252516974       0.14892991986794454       0.14625792072100655       0.14376380172148356       0.14145664881766745       0.13934110061425806       0.13741778336698335       0.13568381085655851       0.13413332302004372       0.13275803902557695       0.13154780319421258       0.13049110553098542       0.12957556235742471       0.12878834638798273       0.12811655934244143       0.12754754365473986       0.12706913289060373       0.12666984303318021       0.12633900879325410
3.6000632712055889E-003   3.6000956046614717E-003   3.6001435387914378E-003   3.6002141283709896E-003   3.6003173872721649E-003   3.6004674206669787E-003   3.6006839393001528E-003   3.6009942588234637E-003   3.6014358987295882E-003   3.6020598943073689E-003   3.6029349060928912E-003   3.6041521281517325E-003   3.6058308159787216E-003   3.6081239102372497E-003   3.6112226284375133E-003   3.6153579078206095E-003   3.6207950653211088E-003   3.6278158640724685E-003   3.6366792879106314E-003   3.6475488566812342E-003   3.6603707266013967E-003   3.6746840683824847E-003   3.6893448901307124E-003   3.7021488109633947E-003  0.12510934996740566       0.12510509478760642       0.12508082222502942       0.12502472519064367       0.12492141650029527       0.12475198695923272       0.12449466877590447       0.12412630691954865       0.12362477783476347       0.12297236923788148       0.12215994960784582       0.12119153240671675       0.12008861810409290       0.11889353142285684       0.11767092025083346       0.11650669264158742       0.11550395652526600       0.11477596884524210       0.11443662795236008       0.11458955168663913       0.11531715762728188       0.11667130249075780       0.11866689121057569       0.12127944363776781       0.12444698487170955       0.12807593010025900       0.13205001090175433       0.13624086347442035       0.14051874722385049       0.14476199564068851       0.14886416740867853       0.15273836561483786       0.15631871121981677       0.15955939052352278       0.16243197681770238       0.16492182986012871       0.16702432086914090       0.16874146197298925       0.17007929601614483       0.17104618007617875       0.17165191400481580       0.17190754455607740       0.17182561897826612       0.17142065908042828       0.17070966081159869       0.16971247740967652       0.16845200122509513       0.16695411022609435       0.16524738466825201       0.16336262611087929       0.16133222607795059       0.15918943760897744       0.15696760239358351       0.15469938147916340       0.15241603048052266       0.15014675204904215       0.14791814988228480       0.14575380027878465       0.14367394949209575       0.14169533813785579       0.13983114782503375       0.13809106014304440       0.13648141422343116       0.13500544634444053       0.13366359344350145       0.13245384187915021       0.13137210322630016       0.13041260014540396       0.12956824725999802       0.12883101431921296       0.12819226152381666       0.12764303958039883       0.12717434966424046       0.12677736089118802       0.12644358502810646       0.12616500994833807       0.12593419473211340
6.4000420734569548E-003   6.4000635734562054E-003   6.4000954456508198E-003   6.4001423780496846E-003   6.4002110211932106E-003   6.4003107333128447E-003   6.4004545689203543E-003   6.4006605658766405E-003   6.4009533782730509E-003   6.4013662706129655E-003   6.4019434088521962E-003   6.4027422144231584E-003   6.4038352206209044E-003   6.4053102821823565E-003   6.4072669886507004E-003   6.4098055239344247E-003   6.4130017732421472E-003   6.4168590016337092E-003   6.4212218384345670E-003   6.4256328152929709E-003   6.4291060664210505E-003   6.4297885436359900E-003   6.4244787708118032E-003  0.12500798034329522       0.12497228633919000       0.12490562560690839       0.12479145480115912       0.12460754943031861       0.12432542527403849       0.12391039281363692       0.12332258866315278       0.12251931155194264       0.12145888983541579       0.12010610699836612       0.11843891600392779       0.11645581604538889       0.11418291023581019       0.11167939731181080       0.10904016773610579       0.10639434854127390       0.10389909946645111       0.10172866661971919       0.10005953915881574        9.9053364107663175E-002   9.8839869284634577E-002   9.9502266482854790E-002  0.10106737142976957       0.10350200107692782       0.10671621524806907       0.11057286014747451       0.11490187637971237       0.11951715556729403       0.12423349032334557       0.12888137984765169       0.13331804292448418       0.13743379396249239       0.14115377110519559       0.14443570345749290       0.14726485753515478       0.14964747265603939       0.15160390899963522       0.15316246453656812       0.15435446129492802       0.15521084481875325       0.15576024710548611       0.15602826608053363       0.15603761842524189       0.15580881126557200       0.15536102519817496       0.15471297820838639       0.15388362376338061       0.15289261091092410       0.15176049152359092       0.15050869804842301       0.14915933637018927       0.14773484664716977       0.14625758450012510       0.14474936938059438       0.14323103899666698       0.14172204006070660       0.14024007731719990       0.13880083527574599       0.13741778048797998       0.13610204660152969       0.13486239978080264       0.13370527837382876       0.13263489789564994       0.13165341045565551       0.13076110662941601       0.12995664739636631       0.12923731404345370       0.12859926476314543       0.12803778793021164       0.12754754359761244       0.12712278648141770       0.12675756549056943       0.12644589659672301       0.12618190744845800       0.12595995355004191       0.12577470700649221       0.12562121976334090
1.0000026665924002E-002   1.0000040291364623E-002   1.0000060488037839E-002   1.0000090222497187E-002   1.0000133697575700E-002   1.0000196813388944E-002   1.0000287767094161E-002   1.0000417806675930E-002   1.0000602126660183E-002   1.0000860828060534E-002   1.0001219725601296E-002   1.0001710511203533E-002   1.0002369273839478E-002   1.0003231478039802E-002   1.0004319995479705E-002   1.0005620376755054E-002   1.0007033912012084E-002   1.0008293861806766E-002   1.0008823432556451E-002   1.0007505950551759E-002   1.0002329364631935E-002   9.9898609676288153E-003   9.9645078560911347E-003  0.12491752947131794       0.12483579693153855       0.12470034580173685       0.12448484783066582       0.12415423059009748       0.12366379031225376       0.12295924946621895       0.12197827236103551       0.12065392791557586       0.11892043950508235       0.11672126397297045       0.11401910264140823       0.11080691608438088       0.10711848654795064       0.10303667689522172        9.8697411294780199E-002   9.4287660343307919E-002   9.0036392945652854E-002   8.6198501482694118E-002   8.3032952345570621E-002   8.0777615389530599E-002   7.9624108267858415E-002   7.9696320385617830E-002   8.1035930047542448E-002   8.3597223245472002E-002   8.7252046025594221E-002   9.1804074042579759E-002   9.7010105560898036E-002  0.10260507739420363       0.10832714975286148       0.11393953179979957       0.11924659873224773       0.12410304902895200       0.12841609232917930       0.13214169902681047       0.13527661903270358       0.13784813187577705       0.13990336456267499       0.14149961729896224       0.14269660884420093       0.14355102263716582       0.14411329686720531       0.14442630592757294       0.14452543420233693       0.14443952224106035       0.14419223068696840       0.14380347724157636       0.14329072187980665       0.14266998220333182       0.14195654249275544       0.14116537412520827       0.14031131484016146       0.13940906583784829       0.13847306522885358       0.13751728929036652       0.13655502319740423       0.13559863279485582       0.13465935981373403       0.13374715519684793       0.13287055893350802       0.13203662986188217       0.13125092508073904       0.13051752573571163       0.12983910386321562       0.12921702357692896       0.12865146907892933       0.12814159169182887       0.12768566826245323       0.12728126380183089       0.12692539201736378       0.12661466837697544       0.12634545144030762       0.12611396932354321       0.12591642926673852       0.12574910929232327       0.12560843184081247       0.12549102001865592       0.12539373768047643
1.4400016108028220E-002   1.4400024337171706E-002   1.4400036532245690E-002   1.4400054478895081E-002   1.4400080699294418E-002   1.4400118715316908E-002   1.4400173374438715E-002   1.4400251220964840E-002   1.4400360848112387E-002   1.4400513065201851E-002   1.4400720509790788E-002   1.4400995942743034E-002   1.4401347747084977E-002   1.4401769896627063E-002   1.4402221562963712E-002   1.4402588190708877E-002   1.4402610833705396E-002   1.4401763399826562E-002   1.4399048047885617E-002   1.4392667770931341E-002   1.4379523723267987E-002   1.4354476269323345E-002  0.12490930828771929       0.12483134431794367       0.12470171846992739       0.12449335596133938       0.12416884237065150       0.12367849784101632       0.12295913454175469       0.12193412278255356       0.12051547673101332       0.11860863745617491       0.11612042480956476       0.11297021793922826       0.10910381688860313       0.10450870334852720        9.9228688550391603E-002   9.3375389802452094E-002   8.7133805737626122E-002   8.0759615750932046E-002   7.4566768098213040E-002   6.8905364103855393E-002   6.4131567220722163E-002   6.0572926019806780E-002   5.8493719391033004E-002   5.8065386053365975E-002   5.9346614311822296E-002   6.2276277845200186E-002   6.6680361671899877E-002   7.2291743538574565E-002   7.8779653831485205E-002   8.5784245965712574E-002   9.2951221623956498E-002   9.9961907251848350E-002  0.10655539537284919       0.11254102241350544       0.11780117377713963       0.12228584771128868       0.12600134653661410       0.12899581755067124       0.13134419322249738       0.13313453301674452       0.13445703883297910       0.13539628192422681       0.13602657259745685       0.13640999353987060       0.13659641306265818       0.13662476328936254       0.13652495602495948       0.13631995834860042       0.13602771320148122       0.13566273536264900       0.13523732411414877       0.13476240715192114       0.13424807050736814       0.13370384470817659       0.13313881690468446       0.13256162961163914       0.13198041435424793       0.13140269610080213       0.13083529353710421       0.13028423153971067       0.12975467558079726       0.12925089292807723       0.12877624201093643       0.12833318887367418       0.12792334796926275       0.12754754347607472       0.12720588671475508       0.12689786500812900       0.12662243738967738       0.12637813286215560       0.12616314737908388       0.12597543631320418       0.12581279983634783       0.12567295931815567       0.12555362351677946       0.12545254395065827       0.12536755938254848       0.12529662979937925       0.12523786062630904
1.9600009273558393E-002   1.9600014009207689E-002   1.9600021023615091E-002   1.9600031336772333E-002   1.9600046379737328E-002   1.9600068126817891E-002   1.9600099237257071E-002   1.9600143162766197E-002   1.9600204111637209E-002   1.9600286624013776E-002   1.9600394243353154E-002   1.9600526257845700E-002   1.9600670555420158E-002   1.9600789013999895E-002   1.9600789143303519E-002   1.9600471393178626E-002   1.9599435059173817E-002   1.9596916522849388E-002   1.9591521469235516E-002   1.9580798312236719E-002   1.9560585310261631E-002   1.9524052843124796E-002  0.12486036178633006       0.12475287833637332       0.12457693630781978       0.12429723056057861       0.12386506582791315       0.12321586948386171       0.12226758412542724       0.12092074519244664       0.11906115902348940       0.11656605408315000       0.11331431285281245       0.10920086220096491       0.10415451863841017        9.8157639952853717E-002   9.1264995283227360E-002   8.3618562405174804E-002   7.5454740181023452E-002   6.7100921074871936E-002   5.8959576353377077E-002   5.1479862682192228E-002   4.5118972966561803E-002   4.0297589977932508E-002   3.7355369460357023E-002   3.6512962865117522E-002   3.7846464026289543E-002   4.1278375294760063E-002   4.6586561803769570E-002   5.3429730600620853E-002   6.1385344242057792E-002   6.9994089085109193E-002   7.8804391850315500E-002   8.7411060463196258E-002   9.5483692152692659E-002  0.10278262620815819       0.10916243164049974       0.11456477483358837       0.11900371885701480       0.12254696210028687       0.12529630234275521       0.12736990862900280       0.12888804372820950       0.12996293519601468       0.13069271209709427       0.13115879549460505       0.13142586652456842       0.13154349434086382       0.13154861763189035       0.13146826403493717       0.13132210035284170       0.13112459188248160       0.13088669074717293       0.13061706651729757       0.13032294357476276       0.13001062933028598       0.12968581683443062       0.12935373402578673       0.12901919660216174       0.12868660639958662       0.12835992424952278       0.12804263619718068       0.12773772456573876       0.12744765016861920       0.12717434846342576       0.12691924013087758       0.12668325508473266       0.12646686801639589       0.12627014307754403       0.12609278509136884       0.12593419468058456       0.12579352485237358       0.12566973684319968       0.12556165336309738       0.12546800775761066       0.12538748799812133       0.12531877479432091       0.12526057347713812       0.12521163961251983       0.12517079856693414       0.12513695944975409
2.5600005087797219E-002   2.5600007683646089E-002   2.5600011524455069E-002   2.5600017160410053E-002   2.5600025352007429E-002   2.5600037119889774E-002   2.5600053768652015E-002   2.5600076821193293E-002   2.5600107718967164E-002   2.5600146977412024E-002   2.5600192159698110E-002   2.5600233416090433E-002   2.5600244218726385E-002   2.5600162975852481E-002   2.5599857967017227E-002   2.5599062888139578E-002   2.5597262530413056E-002   2.5593497110572017E-002   2.5586039291793372E-002   2.5571880686008980E-002   2.5545946980498731E-002  0.12489994766284712       0.12482076569750111       0.12468831577994072       0.12447286048634902       0.12413188458305373       0.12360679614840203       0.12281994381906247       0.12167268775361255       0.12004548865124497       0.11780111111991370       0.11479198665761522       0.11087246399187015       0.10591604040420763        9.9836732145411694E-002   9.2612610754232688E-002   8.4308407324630713E-002   7.5093244681185375E-002   6.5249292922568938E-002   5.5167690689322813E-002   4.5329520213082834E-002   3.6271846116810107E-002   2.8541478492048421E-002   2.2641677413059183E-002   1.8978893218990253E-002   1.7817335194485803E-002   1.9248411837373407E-002   2.3179944205151858E-002   2.9346908884568916E-002   3.7341957007536987E-002   4.6660810628623713E-002   5.6755495769444428E-002   6.7087621544061893E-002   7.7174612515936158E-002   8.6623677961280968E-002   9.5150857650268900E-002  0.10258513360352717       0.10885981850834198       0.11399487655692324       0.11807437883943649       0.12122303052533881       0.12358486473103891       0.12530607311803599       0.12652281205544647       0.12735388790700597       0.12789759128170089       0.12823163309280608       0.12841508485997563       0.12849135832603067       0.12849148690613615       0.12843722044946693       0.12834366607669545       0.12822137677759782       0.12807790081357009       0.12832154053190736       0.12834869734310372       0.12797372971475687       0.12738910984108601       0.12720565806525264       0.12702319708222512       0.12684394131230042       0.12666982381826192       0.12650249079285122       0.12634329714062367       0.12619330703947462       0.12605330104361698       0.12592378987198011       0.12580503419555814       0.12569706928441815       0.12559973316697851       0.12551269690760899       0.12543549567040488       0.12536755937117416       0.12530824189995918       0.12525684810222246       0.12521265792144975       0.12517494731578949       0.12514300575579898       0.12511615028159379       0.12509373624062636       0.12507516493942925
3.2400002659591517E-002   3.2400004014040584E-002   3.2400006013553258E-002   3.2400008935454604E-002   3.2400013150400420E-002   3.2400019123667904E-002   3.2400027368738545E-002   3.2400038276932448E-002   3.2400051655032493E-002   3.2400065616292356E-002   3.2400074105160465E-002   3.2400061648108859E-002   3.2399992676044834E-002   3.2399790594163383E-002   3.2399298160930359E-002   3.2398204996177765E-002   3.2395919386825525E-002   3.2391349296966826E-002   3.2382541360689333E-002   3.2366107423020984E-002   3.2336348538420788E-002  0.12488397167260593       0.12479429367165486       0.12464485300219562       0.12440241739630852       0.12401949915382429       0.12343067746998207       0.12254927300661007       0.12126519654863595       0.11944504621987169       0.11693567476412614       0.11357239157027327       0.10919261040661447       0.10365504740137095        9.6863531589754082E-002   8.8793230018889058E-002   7.9515836326602043E-002   6.9219333538825312E-002   5.8217647098775444E-002   4.6946113325218135E-002   3.5940298975741178E-002   2.5798182792438385E-002   1.7128662629502966E-002   1.0492199846682558E-002   6.3415037872781022E-003   4.9709369866423108E-003   6.4824867529823206E-003   1.0773762749500614E-002   1.7549976563454091E-002   2.6357948828539715E-002   3.6636685739627126E-002   4.7776680622472770E-002   5.9179260981924726E-002   7.0308078985119551E-002   8.0726934132549569E-002   9.0120964589646149E-002   9.8301196001965685E-002  0.10519491145994425       0.11082591643184858       0.11528938139249019       0.11872564993466941       0.12129646184820418       0.12316578753101642       0.12448620981090321       0.12539074716957413       0.12598930613990214       0.12636859720830404       0.12659429205133621       0.12671434732368148       0.12714032441080325       0.12926825608913056       0.13098817618659012       0.13230364425263400       0.13321624495493523       0.13372685816954119       0.13383651449956913       0.13354694235507231       0.13286089800495315       0.13178235023391588       0.13031657185080023       0.12847017395527352       0.12625110637542303       0.12578593458617046       0.12570266461780871       0.12562420730950369       0.12555097190929809       0.12548322597491665       0.12542110602992745       0.12536463059239364       0.12531371496360599       0.12526818709079807       0.12522780382646934       0.12519226696620264       0.12516123853626659       0.12513435490782007       0.12511123942590582       0.12509151335083210       0.12507480501111176       0.12506075715663859       0.12504903257552466       0.12503931809665872
4.0000001324192819E-002   4.0000001996023139E-002   4.0000002983214183E-002   4.0000004413410846E-002   4.0000006443870008E-002   4.0000009236970141E-002   4.0000012877353192E-002   4.0000017149004377E-002   4.0000020994753235E-002   4.0000021286566184E-002   4.0000010155738397E-002   3.9999969418040703E-002   3.9999859335325565E-002   3.9999596705014830E-002   3.9999013521378760E-002   3.9997781499630097E-002   3.9995278784819198E-002   3.9990362456232581E-002   3.9980993718958038E-002   3.9963642758297141E-002  0.12493237985844283       0.12487754418904737       0.12478388096113587       0.12462806455066201       0.12437559530457222       0.12397718590392254       0.12336494766183477       0.12244894200810991       0.12111494918865200       0.11922456811349520       0.11661891372143894       0.11312711932982963       0.10858048476746894       0.10283237876992170        9.5782923696168837E-002   8.7406184090938352E-002   7.7776281594755178E-002   6.7087886120222276E-002   5.5666227646249053E-002   4.3962404456028656E-002   3.2531433108428640E-002   2.1993051309772055E-002   1.2978345750398319E-002   6.0682293929889596E-003   1.7319604277672882E-003   2.7470139580394954E-004   1.8022513267405209E-003   6.2086102344919257E-003   1.3188403231585417E-002   2.2272137774953678E-002   3.2878635431313967E-002   4.4376505966049383E-002   5.6145665787569458E-002   6.7630708918649557E-002   7.8380106225763288E-002   8.8068160878229912E-002   9.6499708721094229E-002  0.10360011794412408       0.10939481173058432       0.11398316890623666       0.11751135193795048       0.12014763898250276       0.12206253764134493       0.12341465156411502       0.12434219068785557       0.12495928368385834       0.12535588465026296       0.12823067809306382       0.13122388084770906       0.13379187017967703       0.13594855942401354       0.13770132412802449       0.13905349821064958       0.14000624821638891       0.14055990864610135       0.14071488830109558       0.14047225689384260       0.13983410596393714       0.13880375771502659       0.13738587539802283       0.13558651205381300       0.13341312161347330       0.13087454727798198       0.12798099604389668       0.12531121377906609       0.12527470086432227       0.12524092457802910       0.12520995315887676       0.12518179590911743       0.12515641062758265       0.12513371154358011       0.12511357743368670       0.12509585962191283       0.12508038960331802       0.12506698608160885       0.12505546126586775       0.12504562632573815       0.12503729595488400       0.12503029203711377       0.12502444644680161       0.12501960304446633
4.8400000627557560E-002   4.8400000943550341E-002   4.8400001403510022E-002   4.8400002058078248E-002   4.8400002956013807E-002   4.8400004108855019E-002   4.8400005395237214E-002   4.8400006324853521E-002   4.8400005489325403E-002   4.8399999339668216E-002   4.8399979563814158E-002   4.8399927648447007E-002   4.8399803961167422E-002   4.8399526518065603E-002   4.8398930986383863E-002   4.8397697729236085E-002   4.8395223047254458E-002   4.8390399510199161E-002   4.8381254143945292E-002   4.8364374027078286E-002  0.12493402919849590       0.12488088811852995       0.12479022025087656       0.12463950628118385       0.12439544412890877       0.12401046254125332       0.12341904168853268       0.12253438604752684       0.12124627150118918       0.11942114123374133       0.11690567205004396       0.11353497593633041       0.10914624797799803       0.10359796532807028        9.6793699702675456E-002   8.8708345540771297E-002   7.9413312869519720E-002   6.9096295713105979E-002   5.8070932106437434E-002   4.6772280902262479E-002   3.5735650970509812E-002   2.5558793512466864E-002   1.6850420850558660E-002   1.0170863052728556E-002   5.9727648016090953E-003   4.5505026706902565E-003   6.0061679045798544E-003   1.0237573747016934E-002   1.6950242702032225E-002   2.5691418710133834E-002   3.5900645543334338E-002   4.6969066630793893E-002   5.8298766406257516E-002   6.9354250950932672E-002   7.9700256676595416E-002   8.9022923705599527E-002   9.7134323154524888E-002  0.10396280256697767       0.10953322407397689       0.11394177892214874       0.11732976718398185       0.11985979322972951       0.12169657443401199       0.12299330026133568       0.12433476367420007       0.12877886673092279       0.13269408204370794       0.13613205326636041       0.13912784220411353       0.14170365586577707       0.14387237345764856       0.14564057390004631       0.14701095216580778       0.14798413644617253       0.14855998584757732       0.14873847431099593       0.14852026579179800       0.14790707108381212       0.14690185700803368       0.14550895945259973       0.14373413559151563       0.14158457831102547       0.13906890718209475       0.13619714453831053       0.13298068157155135       0.12943223716257654       0.12556581090017954       0.12509977164814587       0.12508639108711742       0.12507432777517352       0.12506354096330252       0.12505397304877511       0.12504555338076231       0.12503820188464712       0.12503183240692181       0.12502635570765983       0.12502168205294450       0.12501772338349340       0.12501439505684311       0.12501161717813833       0.12500931554845035
5.7600000282744881E-002   5.7600000423006448E-002   5.7600000623308993E-002   5.7600000897811102E-002   5.7600001245834878E-002   5.7600001615088575E-002   5.7600001808977085E-002   5.7600001265658993E-002   5.7599998553154431E-002   5.7599990256287391E-002   5.7599968602353495E-002   5.7599916553577851E-002   5.7599797973793845E-002   5.7599538527893755E-002   5.7598989727155075E-002   5.7597863378587473E-002   5.7595615929997457E-002   5.7591251195898925E-002   5.7582995472901834E-002  0.12496778180897244       0.12494046255046309       0.12489265613325352       0.12481113347914369       0.12467567265200299       0.12445637114589055       0.12411051615485891       0.12357928159861190       0.12278474137771946       0.12162793665593788       0.11998896175594291       0.11773016525324830       0.11470351185939701       0.11076283319502199       0.10578106145030029        9.9671604407215009E-002   9.2411888981486667E-002   8.4065975625794681E-002   7.4802303773984807E-002   6.4902363900381843E-002   5.4756638529752745E-002   4.4845600072729849E-002   3.5705775090241310E-002   2.7883534948403083E-002   2.1881829255256755E-002   1.8106955444467474E-002   1.6823155992386343E-002   1.8122085168968727E-002   2.1912045430001453E-002   2.7928748575673713E-002   3.5765846716553827E-002   4.4920333096702784E-002   5.4845771013222272E-002   6.5005559460600021E-002   7.4919142218104279E-002   8.4195944036023665E-002   9.2554373967395173E-002   9.9825886209860326E-002  0.10594631051246189       0.11093810970636346       0.11488776865024997       0.11792225425306792       0.12018764406074060       0.12288660921479869       0.12848946652408574       0.13344095078005611       0.13782360544900019       0.14170016429762725       0.14511554471373378       0.14809988927248710       0.15067191753996606       0.15284209848818567       0.15461537465164057       0.15599333763169643       0.15697586557844906       0.15756229403598407       0.15775221486108176       0.15754599734302729       0.15694511250986931       0.15595232397450678       0.15457179143276259       0.15280911844807743       0.15067136514740623       0.14816703868212672       0.14530606914915853       0.14209977542036972       0.13856082338081921       0.13470317796084191       0.13054204973736794       0.12609383656434625       0.12503366587029763       0.12502878011604562       0.12502444644486507       0.12502063285751910       0.12501730308560180       0.12501441810706504       0.12501193750180506       0.12500982062593699       0.12500802759407004       0.12500652006841689       0.12500526186156119       0.12500421936598793
6.7600000120842149E-002   6.7600000179061870E-002   6.7600000258992751E-002   6.7600000359595860E-002   6.7600000462035986E-002   6.7600000496883902E-002   6.7600000263899465E-002   6.7599999243757369E-002   6.7599996171402152E-002   6.7599988099900254E-002   6.7599968408876748E-002   6.7599922694665388E-002   6.7599820543193259E-002   6.7599599558705148E-002   6.7599135310537656E-002   6.7598186554312392E-002   6.7596298596799304E-002   6.7592638480238512E-002   6.7585723570165540E-002  0.12497299072728764       0.12495013850955629       0.12491016386073671       0.12484201423664130       0.12472879557694487       0.12454552724681205       0.12425652776951444       0.12381265585201390       0.12314881555020062       0.12218234183901865       0.12081307228365909       0.11892602076339601       0.11639752660701881       0.11310548730914033       0.10894375334961005       0.10383998222362029        9.7775303834504085E-002   9.0803209874547985E-002   8.3064376384532249E-002   7.4793907663012124E-002   6.6317946386651991E-002   5.8037802214943313E-002   5.0401606892078656E-002   4.3865717619018904E-002   3.8850225773685639E-002   3.5694495832727338E-002   3.4619242463960226E-002   3.5701027648335174E-002   3.8863270712033542E-002   4.3885237238301483E-002   5.0427540960911774E-002   5.8070065826343609E-002   6.6356426426088480E-002   7.4838458879526851E-002   8.3114817349998704E-002   9.0859319136643329E-002   9.7836816572629215E-002  0.10390658770341879       0.10901509344146697       0.11318115629056799       0.11647707241050974       0.12038747528287559       0.12724124704757814       0.13332510649034526       0.13873541623849797       0.14355478981601152       0.14784948801920489       0.15166941256017860       0.15504978074026454       0.15801367520634305       0.16057485231045507       0.16274040004867640       0.16451302093630796       0.16589285589208264       0.16687885793361978       0.16746977523244794       0.16766482256028659       0.16746411967654079       0.16686896423737016       0.16588199208973520       0.16450726342541389       0.16275030119155429       0.16061809897303911       0.15811910908649562       0.15526321733171894       0.15206170814777137       0.14852722230650434       0.14467370835481524       0.14051636851604982       0.13607159950359204       0.13135692857747361       0.12639094512468999       0.12501055378706105       0.12500890742155329       0.12500746992407244       0.12500622444851223       0.12500515354513017       0.12500423966754728       0.12500346559682510       0.12500281478213887       0.12500227160100064       0.12500182154469267
7.8400000048798851E-002   7.8400000070989018E-002   7.8400000098926337E-002   7.8400000126769342E-002   7.8400000132730213E-002   7.8400000052769314E-002   7.8399999717153154E-002   7.8399998702660761E-002   7.8399995999049565E-002   7.8399989278917948E-002   7.8399973346504268E-002   7.8399936939130624E-002   7.8399856327385622E-002   7.8399682894821549E-002   7.8399319770885656E-002   7.8398579244090300E-002   7.8397107640334335E-002   7.8394257205716522E-002   7.8388875134953725E-002  0.12497896869151455       0.12496119391341089       0.12493010685689850       0.12487711593786890       0.12478908905356871       0.12464660858651092       0.12442193944095017       0.12407688460604513       0.12356084602116683       0.12280956973418981       0.12174520157822211       0.12027836528805111       0.11831294187303813       0.11575402294617713       0.11251909904378965       0.10855193661988370       0.10383786293721670        9.8418447834474634E-002   9.2403024607405099E-002   8.5974320454348829E-002   7.9385821895482142E-002   7.2949439028211951E-002   6.7013474843171800E-002   6.1932626456936417E-002   5.8033404770168363E-002   5.5579577603337697E-002   5.4742694584061655E-002   5.5582265417855367E-002   5.8038772699238531E-002   6.1940658667045755E-002   6.7024146529355622E-002   7.2962715228824387E-002   7.9401656041359986E-002   8.5992652754477039E-002   9.2423780388095678E-002   9.8441535957614637E-002  0.10386317442476871       0.10857934360634805       0.11254845416596694       0.11736052861469043       0.12532835499455783       0.13249101555338338       0.13892289691213050       0.14470051418790966       0.14989463554217686       0.15456557668481555       0.15876119232059432       0.16251688542933831       0.16585692219050105       0.16879642608413439       0.17134357196149613       0.17350166212118986       0.17527090973554338       0.17664986434293745       0.17763648619698263       0.17822891570850255       0.17842599936390843       0.17822763313473949       0.17763497587394436       0.17665057376373863       0.17527842570535629       0.17352401016251248       0.17139428684399768       0.16889768158755769       0.16604405947917450       0.16284468915348180       0.15931219997451945       0.15546053308737201       0.15130488694852340       0.14686165774838181       0.14214837504916050       0.13718363292616470       0.13198701689330097       0.12657902689974634       0.12500307370852329       0.12500256122289674       0.12500212056984550       0.12500174452943302       0.12500142601645037       0.12500115822060018       0.12500093471357449       0.12500074952535692
9.0000000018487777E-002   9.0000000025948282E-002   9.0000000033421110E-002   9.0000000034806654E-002   9.0000000011684581E-002   8.9999999913985607E-002   8.9999999613699450E-002   8.9999998797439959E-002   8.9999996724498973E-002   8.9999991697835180E-002   8.9999979940950214E-002   8.9999953282968961E-002   8.9999894527983196E-002   8.9999768469564506E-002   8.9999504987413589E-002   8.9998968242592597E-002   8.9997902341087219E-002   8.9995838667408012E-002  0.12499194329267699       0.12498477476486865       0.12497191430612695       0.12494942426432057       0.12491109038222156       0.12484741438535631       0.12474435189964225       0.12458184281913214       0.12433226032720844       0.12395900840297409       0.12341561424379750       0.12264576852259874       0.12158482837813406       0.12016327409379574       0.11831246134635785       0.11597271316916181       0.11310335650786774       0.10969377704699899       0.10577403783717476       0.10142321182167686        9.6773454115352459E-002   9.2008096612471960E-002   8.7352726236056472E-002   8.3059251329228465E-002   7.9384205135729774E-002   7.6563735660192270E-002   7.4788612509894659E-002   7.4182909111972312E-002   7.4789666735410473E-002   7.6565841085534575E-002   7.9387355540151264E-002   8.3063436969552901E-002   8.7357933383459721E-002   9.2014306985220159E-002   9.6780644247297182E-002  0.10143135241219675       0.10578309313167729       0.10970370429782116       0.11492656235576779       0.12356215713226693       0.13150004230192625       0.13875879290898852       0.14537673869983586       0.15140201203886633       0.15688453711417000       0.16187035522345683       0.16639824167956521       0.17049827215498331       0.17419184722940431       0.17749265998172561       0.18040815346893230       0.18294112144430658       0.18509122228976435       0.18685627978921729       0.18823332347690971       0.18921937342805831       0.18981200289333530       0.19000972314040818       0.18981223460571511       0.18922058230536187       0.18823724519438842       0.18686618108965825       0.18511284199681236       0.18298416953584098       0.18048857653499309       0.17763591846382998       0.17443745687363629       0.17090581611932804       0.16705493413151379       0.16290000773714916       0.15845743289271799       0.15374474013414860       0.14878052552731236       0.14358437740227853       0.13817679916301778       0.13257912847655470       0.12681345315895412       0.12500083167365342       0.12500068419305904       0.12500055927434617       0.12500045424656137       0.12500036658856442       0.12500029395895396
